-2.175371551513671875e+01,-2.141375541687011719e+01,-2.050919723510742188e+01,-1.961355972290039062e+01,-1.945076179504394531e+01,-2.019985961914062500e+01,-2.179835700988769531e+01,-2.407886314392089844e+01,-2.632899284362792969e+01,-2.683823394775390625e+01,-2.553959846496582031e+01,-2.416858291625976562e+01,-2.332982254028320312e+01,-2.279399490356445312e+01,-2.246483802795410156e+01,-2.254251289367675781e+01,-2.293369293212890625e+01,-2.296994590759277344e+01,-2.248190689086914062e+01,-2.231163024902343750e+01,-2.303351593017578125e+01,-2.452479171752929688e+01,-2.598374938964843750e+01,-2.681356048583984375e+01,-2.721542930603027344e+01,-2.719968032836914062e+01,-2.685947227478027344e+01,-2.635375213623046875e+01,-2.599184226989746094e+01,-2.595224761962890625e+01,-2.618325614929199219e+01,-2.647481346130371094e+01,-2.676949882507324219e+01,-2.715841293334960938e+01,-2.786547279357910156e+01,-2.891600799560546875e+01,-2.966777610778808594e+01,-2.982398223876953125e+01,-2.966622924804687500e+01,-2.959062194824218750e+01,-2.989160728454589844e+01,-3.067720031738281250e+01,-3.158156394958496094e+01,-3.220745086669921875e+01,-3.265387725830078125e+01,-3.314372634887695312e+01,-3.401169967651367188e+01,-3.558968734741210938e+01,-3.788699340820312500e+01,-4.011837005615234375e+01,-4.089307022094726562e+01,-4.031202697753906250e+01,-3.918543624877929688e+01,-3.794500350952148438e+01,-3.685075759887695312e+01,-3.609061050415039062e+01,-3.595048141479492188e+01,-3.656178283691406250e+01,-3.756695175170898438e+01,-3.798931503295898438e+01,-3.721242141723632812e+01,-3.569365310668945312e+01,-3.438864898681640625e+01,-3.391993331909179688e+01,-3.420098876953125000e+01,-3.451742172241210938e+01,-3.437862014770507812e+01,-3.408550643920898438e+01,-3.384532928466796875e+01,-3.371789550781250000e+01,-3.408126068115234375e+01,-3.518305969238281250e+01,-3.649505996704101562e+01,-3.701070785522460938e+01,-3.700710296630859375e+01,-3.746334457397460938e+01,-3.790238952636718750e+01,-3.739401626586914062e+01,-3.679066085815429688e+01,-3.704034042358398438e+01,-3.787323760986328125e+01,-3.838762664794921875e+01,-3.839635086059570312e+01,-3.810990905761718750e+01,-3.745269775390625000e+01,-3.687913894653320312e+01,-3.698899078369140625e+01,-3.783120727539062500e+01,-3.866539001464843750e+01,-3.851851654052734375e+01,-3.712034988403320312e+01,-3.549123382568359375e+01,-3.490610885620117188e+01,-3.557771301269531250e+01,-3.638578033447265625e+01,-3.572602844238281250e+01,-3.487958145141601562e+01,-3.504898071289062500e+01,-3.605819320678710938e+01,-3.692145538330078125e+01,-3.690606307983398438e+01,-3.687157440185546875e+01,-3.735376358032226562e+01,-3.761962890625000000e+01,-3.661904907226562500e+01,-3.545458984375000000e+01,-3.490596771240234375e+01,-3.482338333129882812e+01,-3.496948623657226562e+01,-3.517416763305664062e+01,-3.543789672851562500e+01,-3.592148971557617188e+01,-3.656646728515625000e+01,-3.651831436157226562e+01
-1.946091842651367188e+01,-1.936614990234375000e+01,-1.962928390502929688e+01,-1.966161727905273438e+01,-1.906452560424804688e+01,-1.843576622009277344e+01,-1.853414344787597656e+01,-1.952506637573242188e+01,-2.087215995788574219e+01,-2.205710601806640625e+01,-2.325496673583984375e+01,-2.429166793823242188e+01,-2.437109375000000000e+01,-2.385090827941894531e+01,-2.349547386169433594e+01,-2.331971549987792969e+01,-2.315199470520019531e+01,-2.305672073364257812e+01,-2.289507102966308594e+01,-2.249147796630859375e+01,-2.236985969543457031e+01,-2.305725097656250000e+01,-2.442836189270019531e+01,-2.514008712768554688e+01,-2.475460624694824219e+01,-2.460829162597656250e+01,-2.501487731933593750e+01,-2.535815811157226562e+01,-2.545894241333007812e+01,-2.599515724182128906e+01,-2.715925216674804688e+01,-2.808864212036132812e+01,-2.760914802551269531e+01,-2.683456420898437500e+01,-2.710688209533691406e+01,-2.838754081726074219e+01,-2.953171730041503906e+01,-2.985322380065917969e+01,-3.010841751098632812e+01,-3.077039718627929688e+01,-3.182860374450683594e+01,-3.310569000244140625e+01,-3.412623596191406250e+01,-3.450366210937500000e+01,-3.454855346679687500e+01,-3.471672821044921875e+01,-3.542755126953125000e+01,-3.689840316772460938e+01,-3.877795791625976562e+01,-3.941664886474609375e+01,-3.835455703735351562e+01,-3.709637832641601562e+01,-3.602808380126953125e+01,-3.502938079833984375e+01,-3.451548004150390625e+01,-3.488626480102539062e+01,-3.574440002441406250e+01,-3.584225463867187500e+01,-3.519198608398437500e+01,-3.489825820922851562e+01,-3.485395431518554688e+01,-3.448625183105468750e+01,-3.411665344238281250e+01,-3.436316299438476562e+01,-3.532975006103515625e+01,-3.607395172119140625e+01,-3.543737792968750000e+01,-3.428708648681640625e+01,-3.364144897460937500e+01,-3.358905029296875000e+01,-3.405641555786132812e+01,-3.504291915893554688e+01,-3.568982696533203125e+01,-3.511068344116210938e+01,-3.445697784423828125e+01,-3.465052032470703125e+01,-3.545037841796875000e+01,-3.610166549682617188e+01,-3.629310989379882812e+01,-3.634858322143554688e+01,-3.628945922851562500e+01,-3.586666870117187500e+01,-3.514815139770507812e+01,-3.381020355224609375e+01,-3.222384643554687500e+01,-3.134360122680664062e+01,-3.142239379882812500e+01,-3.205216217041015625e+01,-3.257556152343750000e+01,-3.295114898681640625e+01,-3.308583450317382812e+01,-3.256023025512695312e+01,-3.205964279174804688e+01,-3.245231628417968750e+01,-3.378997802734375000e+01,-3.473329925537109375e+01,-3.450320434570312500e+01,-3.437147140502929688e+01,-3.450668334960937500e+01,-3.430118179321289062e+01,-3.414936447143554688e+01,-3.484856414794921875e+01,-3.627878570556640625e+01,-3.736397933959960938e+01,-3.726635360717773438e+01,-3.643665313720703125e+01,-3.532457351684570312e+01,-3.446485519409179688e+01,-3.435157012939453125e+01,-3.501568603515625000e+01,-3.559295654296875000e+01,-3.533526229858398438e+01,-3.511325836181640625e+01,-3.539483642578125000e+01
-1.998144531250000000e+01,-1.917147064208984375e+01,-1.872348785400390625e+01,-1.898084640502929688e+01,-1.980447769165039062e+01,-2.026459503173828125e+01,-2.002867126464843750e+01,-2.014148139953613281e+01,-2.109317779541015625e+01,-2.253280067443847656e+01,-2.383545494079589844e+01,-2.468589401245117188e+01,-2.482835769653320312e+01,-2.481437683105468750e+01,-2.542891311645507812e+01,-2.631174850463867188e+01,-2.671176338195800781e+01,-2.674643707275390625e+01,-2.627573204040527344e+01,-2.555426979064941406e+01,-2.540197563171386719e+01,-2.589159011840820312e+01,-2.617218208312988281e+01,-2.518247795104980469e+01,-2.381450271606445312e+01,-2.340827751159667969e+01,-2.428155326843261719e+01,-2.583279228210449219e+01,-2.673436355590820312e+01,-2.695895385742187500e+01,-2.736128425598144531e+01,-2.777032279968261719e+01,-2.790674972534179688e+01,-2.815052604675292969e+01,-2.896692466735839844e+01,-2.994075775146484375e+01,-3.019060134887695312e+01,-3.002595710754394531e+01,-3.001103401184082031e+01,-3.026813507080078125e+01,-3.085396575927734375e+01,-3.171157836914062500e+01,-3.260358428955078125e+01,-3.322251129150390625e+01,-3.373136520385742188e+01,-3.464891052246093750e+01,-3.619520568847656250e+01,-3.812720108032226562e+01,-3.949620819091796875e+01,-3.979711914062500000e+01,-3.962514114379882812e+01,-3.903976821899414062e+01,-3.812258148193359375e+01,-3.730199432373046875e+01,-3.692459487915039062e+01,-3.687415313720703125e+01,-3.672175216674804688e+01,-3.644986343383789062e+01,-3.655765914916992188e+01,-3.703273010253906250e+01,-3.710450363159179688e+01,-3.682885742187500000e+01,-3.673998260498046875e+01,-3.666675186157226562e+01,-3.657637023925781250e+01,-3.689200592041015625e+01,-3.731805419921875000e+01,-3.688082885742187500e+01,-3.588435363769531250e+01,-3.534921264648437500e+01,-3.551287078857421875e+01,-3.564013671875000000e+01,-3.490618133544921875e+01,-3.411899566650390625e+01,-3.408224868774414062e+01,-3.466508102416992188e+01,-3.535382843017578125e+01,-3.585152816772460938e+01,-3.590548706054687500e+01,-3.542603302001953125e+01,-3.511426544189453125e+01,-3.538814163208007812e+01,-3.619828033447265625e+01,-3.669862365722656250e+01,-3.613282394409179688e+01,-3.544612121582031250e+01,-3.540775299072265625e+01,-3.581698608398437500e+01,-3.610768890380859375e+01,-3.630685806274414062e+01,-3.631626892089843750e+01,-3.563490676879882812e+01,-3.487313842773437500e+01,-3.482978439331054688e+01,-3.543492889404296875e+01,-3.563710784912109375e+01,-3.522468185424804688e+01,-3.515106964111328125e+01,-3.545963287353515625e+01,-3.563893890380859375e+01,-3.592401123046875000e+01,-3.683309936523437500e+01,-3.799972915649414062e+01,-3.882414245605468750e+01,-3.934819793701171875e+01,-3.918953323364257812e+01,-3.770691299438476562e+01,-3.612554168701171875e+01,-3.553306579589843750e+01,-3.596137237548828125e+01,-3.617194366455078125e+01,-3.545096969604492188e+01,-3.520426559448242188e+01,-3.582549285888671875e+01
-2.723810386657714844e+01,-2.786597633361816406e+01,-2.757054519653320312e+01,-2.664845085144042969e+01,-2.619391059875488281e+01,-2.655121803283691406e+01,-2.772585868835449219e+01,-2.942202758789062500e+01,-3.017000198364257812e+01,-2.899848747253417969e+01,-2.807703018188476562e+01,-2.847153472900390625e+01,-2.955744171142578125e+01,-2.990570831298828125e+01,-2.983422470092773438e+01,-2.997606849670410156e+01,-2.912513923645019531e+01,-2.741769599914550781e+01,-2.638545417785644531e+01,-2.632877349853515625e+01,-2.670332527160644531e+01,-2.706221199035644531e+01,-2.755754661560058594e+01,-2.826320266723632812e+01,-2.881494522094726562e+01,-2.923375511169433594e+01,-2.980290794372558594e+01,-3.032705307006835938e+01,-3.018271064758300781e+01,-2.919558334350585938e+01,-2.852024078369140625e+01,-2.884309959411621094e+01,-2.977834129333496094e+01,-3.041025543212890625e+01,-3.061651039123535156e+01,-3.068827629089355469e+01,-3.056142044067382812e+01,-3.066933250427246094e+01,-3.128560256958007812e+01,-3.201682281494140625e+01,-3.269082260131835938e+01,-3.379581069946289062e+01,-3.557554626464843750e+01,-3.737953186035156250e+01,-3.836619567871093750e+01,-3.946449279785156250e+01,-4.112183380126953125e+01,-4.244670104980468750e+01,-4.269859313964843750e+01,-4.202679824829101562e+01,-4.125957107543945312e+01,-4.038034820556640625e+01,-3.924339675903320312e+01,-3.851214599609375000e+01,-3.855526733398437500e+01,-3.877429199218750000e+01,-3.875978851318359375e+01,-3.924552154541015625e+01,-4.059883880615234375e+01,-4.156285095214843750e+01,-4.117244720458984375e+01,-4.082129669189453125e+01,-4.118610382080078125e+01,-4.189070129394531250e+01,-4.201251220703125000e+01,-4.112857055664062500e+01,-3.987590789794921875e+01,-3.893263244628906250e+01,-3.861128997802734375e+01,-3.913029479980468750e+01,-4.035641098022460938e+01,-4.133319091796875000e+01,-4.113134765625000000e+01,-4.048220443725585938e+01,-4.016007995605468750e+01,-4.034727478027343750e+01,-4.087936401367187500e+01,-4.085116577148437500e+01,-3.966403961181640625e+01,-3.850962829589843750e+01,-3.806578826904296875e+01,-3.816938781738281250e+01,-3.867687225341796875e+01,-3.926624679565429688e+01,-3.903863525390625000e+01,-3.830903625488281250e+01,-3.813445663452148438e+01,-3.824431610107421875e+01,-3.799846649169921875e+01,-3.794133377075195312e+01,-3.855245208740234375e+01,-3.931968307495117188e+01,-3.951205062866210938e+01,-3.919477844238281250e+01,-3.889879226684570312e+01,-3.892271804809570312e+01,-3.948860549926757812e+01,-4.045624542236328125e+01,-4.097270202636718750e+01,-4.053226089477539062e+01,-4.007709884643554688e+01,-4.022543716430664062e+01,-4.037565994262695312e+01,-3.956727600097656250e+01,-3.844949722290039062e+01,-3.803368377685546875e+01,-3.845489501953125000e+01,-3.911980438232421875e+01,-3.956827545166015625e+01,-4.015442276000976562e+01,-4.064655303955078125e+01,-3.997158050537109375e+01,-3.880957031250000000e+01,-3.810486221313476562e+01
-2.605356407165527344e+01,-2.640356445312500000e+01,-2.662084770202636719e+01,-2.679692840576171875e+01,-2.659601974487304688e+01,-2.612693595886230469e+01,-2.603279113769531250e+01,-2.646239089965820312e+01,-2.681292343139648438e+01,-2.643505668640136719e+01,-2.571454811096191406e+01,-2.503553962707519531e+01,-2.397614860534667969e+01,-2.293422698974609375e+01,-2.279256248474121094e+01,-2.376548385620117188e+01,-2.516013336181640625e+01,-2.570907783508300781e+01,-2.534755706787109375e+01,-2.500427818298339844e+01,-2.527543067932128906e+01,-2.594687080383300781e+01,-2.624817276000976562e+01,-2.617817497253417969e+01,-2.636189270019531250e+01,-2.676579284667968750e+01,-2.696627235412597656e+01,-2.674211120605468750e+01,-2.627748298645019531e+01,-2.598623847961425781e+01,-2.618111801147460938e+01,-2.673150634765625000e+01,-2.734662818908691406e+01,-2.793865776062011719e+01,-2.833421134948730469e+01,-2.828372764587402344e+01,-2.814561843872070312e+01,-2.839537048339843750e+01,-2.903425025939941406e+01,-3.004735946655273438e+01,-3.151291656494140625e+01,-3.311225891113281250e+01,-3.433051300048828125e+01,-3.532083129882812500e+01,-3.585519409179687500e+01,-3.601490402221679688e+01,-3.631867218017578125e+01,-3.691418457031250000e+01,-3.756298446655273438e+01,-3.813818740844726562e+01,-3.860247039794921875e+01,-3.856909179687500000e+01,-3.820621109008789062e+01,-3.786940765380859375e+01,-3.756784820556640625e+01,-3.731157302856445312e+01,-3.736758041381835938e+01,-3.807641220092773438e+01,-3.947938537597656250e+01,-4.031663894653320312e+01,-3.870904541015625000e+01,-3.670255661010742188e+01,-3.600109481811523438e+01,-3.678486251831054688e+01,-3.841032409667968750e+01,-3.920858001708984375e+01,-3.872896575927734375e+01,-3.830649185180664062e+01,-3.839666366577148438e+01,-3.855624771118164062e+01,-3.859397888183593750e+01,-3.889649581909179688e+01,-3.939939880371093750e+01,-3.924283599853515625e+01,-3.834935760498046875e+01,-3.753783416748046875e+01,-3.731986236572265625e+01,-3.751035690307617188e+01,-3.734015655517578125e+01,-3.667344284057617188e+01,-3.630977249145507812e+01,-3.676414871215820312e+01,-3.785382080078125000e+01,-3.884539794921875000e+01,-3.871752548217773438e+01,-3.758872985839843750e+01,-3.664480972290039062e+01,-3.638965225219726562e+01,-3.680639266967773438e+01,-3.754449081420898438e+01,-3.803505706787109375e+01,-3.803441238403320312e+01,-3.805238723754882812e+01,-3.866194152832031250e+01,-3.960378646850585938e+01,-3.992498397827148438e+01,-3.941829681396484375e+01,-3.866604614257812500e+01,-3.741843795776367188e+01,-3.618272399902343750e+01,-3.599921417236328125e+01,-3.731219482421875000e+01,-3.958436203002929688e+01,-3.986680603027343750e+01,-3.805771255493164062e+01,-3.692715454101562500e+01,-3.687011718750000000e+01,-3.743495178222656250e+01,-3.817060852050781250e+01,-3.894693374633789062e+01,-3.933221054077148438e+01,-3.887557220458984375e+01,-3.818553161621093750e+01,-3.739273071289062500e+01
-2.426619148254394531e+01,-2.501043510437011719e+01,-2.547285842895507812e+01,-2.558191680908203125e+01,-2.495570755004882812e+01,-2.415075683593750000e+01,-2.398161697387695312e+01,-2.454557418823242188e+01,-2.537090873718261719e+01,-2.587711334228515625e+01,-2.591236114501953125e+01,-2.538920211791992188e+01,-2.399498939514160156e+01,-2.266694641113281250e+01,-2.225501823425292969e+01,-2.273839378356933594e+01,-2.355058288574218750e+01,-2.416143608093261719e+01,-2.443943405151367188e+01,-2.463892364501953125e+01,-2.538514900207519531e+01,-2.656968307495117188e+01,-2.697770690917968750e+01,-2.650387573242187500e+01,-2.622202301025390625e+01,-2.634876632690429688e+01,-2.662963676452636719e+01,-2.671749687194824219e+01,-2.649383735656738281e+01,-2.653764915466308594e+01,-2.721224975585937500e+01,-2.781510925292968750e+01,-2.780359077453613281e+01,-2.783418655395507812e+01,-2.836853027343750000e+01,-2.911028861999511719e+01,-2.976113510131835938e+01,-3.028031921386718750e+01,-3.048384094238281250e+01,-3.070050239562988281e+01,-3.147433853149414062e+01,-3.283975601196289062e+01,-3.436256408691406250e+01,-3.534472274780273438e+01,-3.521611404418945312e+01,-3.470672607421875000e+01,-3.465050506591796875e+01,-3.504729843139648438e+01,-3.578740310668945312e+01,-3.704341506958007812e+01,-3.813033676147460938e+01,-3.732845306396484375e+01,-3.603649902343750000e+01,-3.582105255126953125e+01,-3.629981613159179688e+01,-3.629098129272460938e+01,-3.599805831909179688e+01,-3.642482376098632812e+01,-3.753499221801757812e+01,-3.821286773681640625e+01,-3.751409149169921875e+01,-3.633587646484375000e+01,-3.586462402343750000e+01,-3.643475341796875000e+01,-3.748779296875000000e+01,-3.814928436279296875e+01,-3.858480072021484375e+01,-3.881888580322265625e+01,-3.866413497924804688e+01,-3.886975860595703125e+01,-3.995909500122070312e+01,-4.139699172973632812e+01,-4.143068695068359375e+01,-3.989723968505859375e+01,-3.813539886474609375e+01,-3.692786407470703125e+01,-3.669845581054687500e+01,-3.722547531127929688e+01,-3.743912124633789062e+01,-3.693053817749023438e+01,-3.671702194213867188e+01,-3.713405609130859375e+01,-3.767042160034179688e+01,-3.809273910522460938e+01,-3.812588500976562500e+01,-3.743784332275390625e+01,-3.680451965332031250e+01,-3.689728927612304688e+01,-3.759815597534179688e+01,-3.851499938964843750e+01,-3.955368423461914062e+01,-4.058274078369140625e+01,-4.060567474365234375e+01,-3.932720184326171875e+01,-3.800677490234375000e+01,-3.760852050781250000e+01,-3.825170516967773438e+01,-3.909494018554687500e+01,-3.835780334472656250e+01,-3.690538024902343750e+01,-3.658403778076171875e+01,-3.762349319458007812e+01,-3.890415954589843750e+01,-3.820778656005859375e+01,-3.655883026123046875e+01,-3.566231918334960938e+01,-3.577615737915039062e+01,-3.678128433227539062e+01,-3.839517211914062500e+01,-3.995066833496093750e+01,-4.020590591430664062e+01,-3.942490768432617188e+01,-3.881651306152343750e+01,-3.796447753906250000e+01
-3.081955146789550781e+01,-3.056653022766113281e+01,-3.048089218139648438e+01,-3.091432189941406250e+01,-3.115589904785156250e+01,-3.061076354980468750e+01,-3.030227279663085938e+01,-3.080174827575683594e+01,-3.149196624755859375e+01,-3.134115028381347656e+01,-3.068062210083007812e+01,-3.030398750305175781e+01,-3.014406204223632812e+01,-2.980437278747558594e+01,-2.907112693786621094e+01,-2.802840805053710938e+01,-2.717759132385253906e+01,-2.711937332153320312e+01,-2.805374908447265625e+01,-2.948149681091308594e+01,-3.036190986633300781e+01,-3.034885025024414062e+01,-2.985168647766113281e+01,-2.939933013916015625e+01,-2.949397659301757812e+01,-3.020917892456054688e+01,-3.101681327819824219e+01,-3.115385627746582031e+01,-3.075855445861816406e+01,-3.075686073303222656e+01,-3.162361526489257812e+01,-3.283369827270507812e+01,-3.315653991699218750e+01,-3.289839553833007812e+01,-3.311630249023437500e+01,-3.371483612060546875e+01,-3.415092849731445312e+01,-3.429242706298828125e+01,-3.445011901855468750e+01,-3.478764724731445312e+01,-3.542886352539062500e+01,-3.670255279541015625e+01,-3.853790664672851562e+01,-3.981490325927734375e+01,-3.957337188720703125e+01,-3.893748474121093750e+01,-3.914224243164062500e+01,-4.033214950561523438e+01,-4.189974212646484375e+01,-4.284082794189453125e+01,-4.289462280273437500e+01,-4.255409240722656250e+01,-4.247963714599609375e+01,-4.267967987060546875e+01,-4.212764739990234375e+01,-4.092782211303710938e+01,-4.037259674072265625e+01,-4.066355514526367188e+01,-4.087955474853515625e+01,-4.050318908691406250e+01,-4.046267700195312500e+01,-4.119565582275390625e+01,-4.201340866088867188e+01,-4.219157409667968750e+01,-4.198180389404296875e+01,-4.190769195556640625e+01,-4.207569885253906250e+01,-4.207186508178710938e+01,-4.161305999755859375e+01,-4.143813323974609375e+01,-4.220303344726562500e+01,-4.340292358398437500e+01,-4.364076995849609375e+01,-4.309944152832031250e+01,-4.263414382934570312e+01,-4.248853302001953125e+01,-4.288261032104492188e+01,-4.360738372802734375e+01,-4.337998199462890625e+01,-4.233770370483398438e+01,-4.212894821166992188e+01,-4.317916870117187500e+01,-4.444838333129882812e+01,-4.380038452148437500e+01,-4.230590057373046875e+01,-4.158307266235351562e+01,-4.154724884033203125e+01,-4.161558532714843750e+01,-4.154657745361328125e+01,-4.134194183349609375e+01,-4.094886779785156250e+01,-4.087128448486328125e+01,-4.162888336181640625e+01,-4.292348861694335938e+01,-4.336449813842773438e+01,-4.269650650024414062e+01,-4.217812347412109375e+01,-4.233666992187500000e+01,-4.268179702758789062e+01,-4.225664520263671875e+01,-4.127493286132812500e+01,-4.067649078369140625e+01,-4.086695098876953125e+01,-4.143196868896484375e+01,-4.143089294433593750e+01,-4.077555847167968750e+01,-4.040884399414062500e+01,-4.085739517211914062e+01,-4.201343536376953125e+01,-4.298297119140625000e+01,-4.255521011352539062e+01,-4.156928253173828125e+01,-4.127013778686523438e+01,-4.172695922851562500e+01
-3.017262077331542969e+01,-3.020609283447265625e+01,-2.994388580322265625e+01,-2.943849372863769531e+01,-2.931645393371582031e+01,-2.986064529418945312e+01,-3.085587120056152344e+01,-3.159383392333984375e+01,-3.166047859191894531e+01,-3.110202789306640625e+01,-3.008403778076171875e+01,-2.909139442443847656e+01,-2.821508026123046875e+01,-2.734411811828613281e+01,-2.698022651672363281e+01,-2.733896064758300781e+01,-2.785979270935058594e+01,-2.791362953186035156e+01,-2.717682456970214844e+01,-2.541156959533691406e+01,-2.388682746887207031e+01,-2.368942070007324219e+01,-2.496757888793945312e+01,-2.729601287841796875e+01,-2.956644248962402344e+01,-3.025753784179687500e+01,-2.931398773193359375e+01,-2.859134292602539062e+01,-2.895795822143554688e+01,-3.024087524414062500e+01,-3.127280044555664062e+01,-3.095940017700195312e+01,-3.036800384521484375e+01,-3.055006599426269531e+01,-3.128726196289062500e+01,-3.186609268188476562e+01,-3.243986511230468750e+01,-3.344947052001953125e+01,-3.482295608520507812e+01,-3.639783859252929688e+01,-3.808439254760742188e+01,-3.973024368286132812e+01,-4.080961990356445312e+01,-4.115594100952148438e+01,-4.094723892211914062e+01,-4.070549392700195312e+01,-4.099253845214843750e+01,-4.215481948852539062e+01,-4.411029052734375000e+01,-4.569642639160156250e+01,-4.563901519775390625e+01,-4.491464233398437500e+01,-4.436101531982421875e+01,-4.397251892089843750e+01,-4.357317733764648438e+01,-4.307738494873046875e+01,-4.276598358154296875e+01,-4.295559310913085938e+01,-4.307545852661132812e+01,-4.230669021606445312e+01,-4.162642669677734375e+01,-4.206724548339843750e+01,-4.337748718261718750e+01,-4.388934707641601562e+01,-4.320943450927734375e+01,-4.262178802490234375e+01,-4.220407104492187500e+01,-4.197448730468750000e+01,-4.238077545166015625e+01,-4.366038131713867188e+01,-4.538584136962890625e+01,-4.669366836547851562e+01,-4.679319763183593750e+01,-4.502377319335937500e+01,-4.320965576171875000e+01,-4.268518066406250000e+01,-4.319037628173828125e+01,-4.335974502563476562e+01,-4.285674667358398438e+01,-4.281156158447265625e+01,-4.332292556762695312e+01,-4.379003143310546875e+01,-4.345893859863281250e+01,-4.245385742187500000e+01,-4.193656158447265625e+01,-4.246513366699218750e+01,-4.346135711669921875e+01,-4.370574188232421875e+01,-4.335350036621093750e+01,-4.282122421264648438e+01,-4.239181518554687500e+01,-4.266721725463867188e+01,-4.363972473144531250e+01,-4.422725677490234375e+01,-4.377645111083984375e+01,-4.348662567138671875e+01,-4.392763900756835938e+01,-4.437033843994140625e+01,-4.416086196899414062e+01,-4.376424789428710938e+01,-4.355568313598632812e+01,-4.333523559570312500e+01,-4.308001708984375000e+01,-4.315521621704101562e+01,-4.357147979736328125e+01,-4.382557296752929688e+01,-4.362280273437500000e+01,-4.306343841552734375e+01,-4.253531646728515625e+01,-4.231668090820312500e+01,-4.233507156372070312e+01,-4.215510940551757812e+01,-4.186991119384765625e+01,-4.211088562011718750e+01
-3.097826385498046875e+01,-3.077532768249511719e+01,-3.021208190917968750e+01,-2.884915542602539062e+01,-2.752856063842773438e+01,-2.701698875427246094e+01,-2.712294578552246094e+01,-2.756696128845214844e+01,-2.845041275024414062e+01,-2.942646408081054688e+01,-2.931825447082519531e+01,-2.829678344726562500e+01,-2.745759391784667969e+01,-2.722893905639648438e+01,-2.775723838806152344e+01,-2.887793731689453125e+01,-2.963364219665527344e+01,-2.922773742675781250e+01,-2.827495002746582031e+01,-2.730355262756347656e+01,-2.660953712463378906e+01,-2.634458160400390625e+01,-2.660833549499511719e+01,-2.739947700500488281e+01,-2.859132385253906250e+01,-2.976141738891601562e+01,-3.029521369934082031e+01,-3.049350929260253906e+01,-3.073229598999023438e+01,-3.101742172241210938e+01,-3.126772308349609375e+01,-3.169700813293457031e+01,-3.244162750244140625e+01,-3.323962020874023438e+01,-3.358310699462890625e+01,-3.318806457519531250e+01,-3.236270141601562500e+01,-3.160234832763671875e+01,-3.151425170898437500e+01,-3.245072555541992188e+01,-3.394592285156250000e+01,-3.483650588989257812e+01,-3.520008087158203125e+01,-3.594809341430664062e+01,-3.719937896728515625e+01,-3.865349960327148438e+01,-4.009478759765625000e+01,-4.113040161132812500e+01,-4.189109802246093750e+01,-4.281032562255859375e+01,-4.325030136108398438e+01,-4.243618392944335938e+01,-4.154433059692382812e+01,-4.150878143310546875e+01,-4.137543487548828125e+01,-3.986941146850585938e+01,-3.852378082275390625e+01,-3.858386230468750000e+01,-3.976422882080078125e+01,-4.050516891479492188e+01,-4.014128875732421875e+01,-3.988610076904296875e+01,-4.019664764404296875e+01,-4.070306777954101562e+01,-4.105731201171875000e+01,-4.107623672485351562e+01,-4.078980255126953125e+01,-4.067869186401367188e+01,-4.110729217529296875e+01,-4.190864562988281250e+01,-4.261586761474609375e+01,-4.333408737182617188e+01,-4.395710754394531250e+01,-4.322736358642578125e+01,-4.174390029907226562e+01,-4.096933364868164062e+01,-4.107518768310546875e+01,-4.155261993408203125e+01,-4.186244583129882812e+01,-4.194540405273437500e+01,-4.186982727050781250e+01,-4.192537307739257812e+01,-4.230775070190429688e+01,-4.259211349487304688e+01,-4.213110351562500000e+01,-4.138582611083984375e+01,-4.124167633056640625e+01,-4.170003128051757812e+01,-4.213552474975585938e+01,-4.187895965576171875e+01,-4.108889770507812500e+01,-4.047315597534179688e+01,-4.010764694213867188e+01,-3.975881958007812500e+01,-3.960631561279296875e+01,-4.008325576782226562e+01,-4.123474884033203125e+01,-4.239340972900390625e+01,-4.260384368896484375e+01,-4.190184783935546875e+01,-4.100182342529296875e+01,-4.025846481323242188e+01,-4.010156250000000000e+01,-4.085401916503906250e+01,-4.199380111694335938e+01,-4.214476776123046875e+01,-4.160564041137695312e+01,-4.129727172851562500e+01,-4.077931213378906250e+01,-3.971551895141601562e+01,-3.895446014404296875e+01,-3.919324111938476562e+01,-4.036753082275390625e+01,-4.166059112548828125e+01
-3.042601585388183594e+01,-2.930350875854492188e+01,-2.901103401184082031e+01,-2.898255157470703125e+01,-2.879980659484863281e+01,-2.843359375000000000e+01,-2.797451019287109375e+01,-2.784404182434082031e+01,-2.853059196472167969e+01,-2.976645469665527344e+01,-3.035784721374511719e+01,-2.944429779052734375e+01,-2.806996536254882812e+01,-2.753650283813476562e+01,-2.805874061584472656e+01,-2.876530456542968750e+01,-2.865442276000976562e+01,-2.837839126586914062e+01,-2.850520706176757812e+01,-2.875731277465820312e+01,-2.911197280883789062e+01,-2.969318771362304688e+01,-3.014014816284179688e+01,-3.011286926269531250e+01,-2.998669815063476562e+01,-3.001004981994628906e+01,-3.012005996704101562e+01,-3.049107551574707031e+01,-3.113443756103515625e+01,-3.146063995361328125e+01,-3.147953224182128906e+01,-3.196814346313476562e+01,-3.291763305664062500e+01,-3.352817916870117188e+01,-3.352252578735351562e+01,-3.327030181884765625e+01,-3.291153335571289062e+01,-3.290293502807617188e+01,-3.354907989501953125e+01,-3.439437866210937500e+01,-3.484426879882812500e+01,-3.520018005371093750e+01,-3.595405197143554688e+01,-3.664597320556640625e+01,-3.701945114135742188e+01,-3.781438446044921875e+01,-3.947154235839843750e+01,-4.153405761718750000e+01,-4.292914199829101562e+01,-4.327688980102539062e+01,-4.277902221679687500e+01,-4.225444793701171875e+01,-4.199595642089843750e+01,-4.138736724853515625e+01,-3.994805908203125000e+01,-3.861814880371093750e+01,-3.816198348999023438e+01,-3.867384338378906250e+01,-3.949048614501953125e+01,-3.962579727172851562e+01,-3.915603637695312500e+01,-3.872092437744140625e+01,-3.880551910400390625e+01,-3.945829010009765625e+01,-4.042189788818359375e+01,-4.115903854370117188e+01,-4.134307479858398438e+01,-4.138930892944335938e+01,-4.181444168090820312e+01,-4.257236480712890625e+01,-4.302802276611328125e+01,-4.324480819702148438e+01,-4.334516906738281250e+01,-4.225359344482421875e+01,-4.062938690185546875e+01,-3.975767517089843750e+01,-3.977980804443359375e+01,-4.012990951538085938e+01,-4.027565765380859375e+01,-4.036348724365234375e+01,-4.062459564208984375e+01,-4.107978057861328125e+01,-4.155809020996093750e+01,-4.185292816162109375e+01,-4.159580230712890625e+01,-4.100714874267578125e+01,-4.080425262451171875e+01,-4.113924789428710938e+01,-4.167205429077148438e+01,-4.183681488037109375e+01,-4.167703247070312500e+01,-4.173420715332031250e+01,-4.137294006347656250e+01,-4.003257751464843750e+01,-3.866596603393554688e+01,-3.812796783447265625e+01,-3.848254394531250000e+01,-3.923685455322265625e+01,-3.964311218261718750e+01,-3.937187576293945312e+01,-3.881815338134765625e+01,-3.829190063476562500e+01,-3.805657196044921875e+01,-3.821424102783203125e+01,-3.837424087524414062e+01,-3.838025665283203125e+01,-3.873329544067382812e+01,-3.929262161254882812e+01,-3.925199508666992188e+01,-3.877767181396484375e+01,-3.848574829101562500e+01,-3.830780792236328125e+01,-3.811226654052734375e+01,-3.799619674682617188e+01
-3.091601753234863281e+01,-2.977161216735839844e+01,-2.945642089843750000e+01,-3.003300857543945312e+01,-3.100118637084960938e+01,-3.156958580017089844e+01,-3.120829772949218750e+01,-3.036331367492675781e+01,-2.963368415832519531e+01,-2.908884620666503906e+01,-2.873711013793945312e+01,-2.856223869323730469e+01,-2.836585617065429688e+01,-2.832072067260742188e+01,-2.879183578491210938e+01,-2.935027313232421875e+01,-2.884141540527343750e+01,-2.803803253173828125e+01,-2.813367271423339844e+01,-2.891169166564941406e+01,-2.943552589416503906e+01,-2.971524047851562500e+01,-3.044378852844238281e+01,-3.104482460021972656e+01,-3.074330902099609375e+01,-3.021477890014648438e+01,-3.016012573242187500e+01,-3.076818084716796875e+01,-3.198949432373046875e+01,-3.351687622070312500e+01,-3.476352310180664062e+01,-3.490796661376953125e+01,-3.415754699707031250e+01,-3.371109390258789062e+01,-3.387535858154296875e+01,-3.412953567504882812e+01,-3.431632232666015625e+01,-3.492822647094726562e+01,-3.572588729858398438e+01,-3.589110565185546875e+01,-3.584992980957031250e+01,-3.623866653442382812e+01,-3.679177856445312500e+01,-3.726973724365234375e+01,-3.808792495727539062e+01,-3.951105880737304688e+01,-4.128106689453125000e+01,-4.283575820922851562e+01,-4.380247497558593750e+01,-4.406300735473632812e+01,-4.387989807128906250e+01,-4.357756042480468750e+01,-4.306266021728515625e+01,-4.227431488037109375e+01,-4.123488998413085938e+01,-3.996853637695312500e+01,-3.905937194824218750e+01,-3.910339355468750000e+01,-4.017293167114257812e+01,-4.144018554687500000e+01,-4.146330261230468750e+01,-4.066923141479492188e+01,-4.021981048583984375e+01,-4.055191421508789062e+01,-4.173059844970703125e+01,-4.330836105346679688e+01,-4.309610748291015625e+01,-4.099916076660156250e+01,-3.967675018310546875e+01,-3.971941375732421875e+01,-4.056413269042968750e+01,-4.146055221557617188e+01,-4.213696670532226562e+01,-4.228739166259765625e+01,-4.196278381347656250e+01,-4.173217773437500000e+01,-4.142194366455078125e+01,-4.072311401367187500e+01,-4.007068634033203125e+01,-3.985120010375976562e+01,-4.011562347412109375e+01,-4.084769821166992188e+01,-4.161241149902343750e+01,-4.163099288940429688e+01,-4.096703338623046875e+01,-4.032058715820312500e+01,-4.011230087280273438e+01,-4.039869308471679688e+01,-4.104643249511718750e+01,-4.158081436157226562e+01,-4.185980606079101562e+01,-4.230247116088867188e+01,-4.235682678222656250e+01,-4.111942672729492188e+01,-3.909709167480468750e+01,-3.760836791992187500e+01,-3.730879211425781250e+01,-3.832796478271484375e+01,-4.021430587768554688e+01,-4.136517333984375000e+01,-4.102815246582031250e+01,-4.050220489501953125e+01,-4.065670394897460938e+01,-4.142001724243164062e+01,-4.174539947509765625e+01,-4.126717376708984375e+01,-4.114331054687500000e+01,-4.193413925170898438e+01,-4.283023071289062500e+01,-4.265387725830078125e+01,-4.201844406127929688e+01,-4.135736465454101562e+01,-4.032361602783203125e+01,-3.925885009765625000e+01
-2.919028854370117188e+01,-2.837915992736816406e+01,-2.807547760009765625e+01,-2.819715881347656250e+01,-2.840184402465820312e+01,-2.845250320434570312e+01,-2.833736991882324219e+01,-2.828667449951171875e+01,-2.845553398132324219e+01,-2.867151832580566406e+01,-2.895698738098144531e+01,-2.973186683654785156e+01,-3.089232635498046875e+01,-3.136244773864746094e+01,-3.075324249267578125e+01,-2.988896751403808594e+01,-2.912938690185546875e+01,-2.872817420959472656e+01,-2.889616394042968750e+01,-2.917443275451660156e+01,-2.866796112060546875e+01,-2.797891998291015625e+01,-2.825007057189941406e+01,-2.966349029541015625e+01,-3.149716377258300781e+01,-3.250314712524414062e+01,-3.227822494506835938e+01,-3.160912704467773438e+01,-3.145068359375000000e+01,-3.195472908020019531e+01,-3.253422546386718750e+01,-3.290232849121093750e+01,-3.327249526977539062e+01,-3.333922195434570312e+01,-3.293571853637695312e+01,-3.264343261718750000e+01,-3.281525421142578125e+01,-3.330553054809570312e+01,-3.381818008422851562e+01,-3.435170745849609375e+01,-3.493449783325195312e+01,-3.529471206665039062e+01,-3.539892578125000000e+01,-3.585611724853515625e+01,-3.720025634765625000e+01,-3.903623962402343750e+01,-4.017023468017578125e+01,-4.034143829345703125e+01,-4.052174758911132812e+01,-4.094169616699218750e+01,-4.149621200561523438e+01,-4.211378479003906250e+01,-4.244118499755859375e+01,-4.197136688232421875e+01,-4.082076263427734375e+01,-3.971123504638671875e+01,-3.919562149047851562e+01,-3.955425262451171875e+01,-4.077943420410156250e+01,-4.212466812133789062e+01,-4.188809204101562500e+01,-4.048296356201171875e+01,-3.952581024169921875e+01,-3.942238616943359375e+01,-3.993212890625000000e+01,-4.055110168457031250e+01,-4.063310241699218750e+01,-4.010123443603515625e+01,-3.961783599853515625e+01,-3.956503677368164062e+01,-3.977524566650390625e+01,-4.022405242919921875e+01,-4.110998153686523438e+01,-4.178501129150390625e+01,-4.127745819091796875e+01,-4.041686248779296875e+01,-3.992283630371093750e+01,-3.977690124511718750e+01,-4.002972030639648438e+01,-4.072678375244140625e+01,-4.159167098999023438e+01,-4.222141647338867188e+01,-4.236939620971679688e+01,-4.207074737548828125e+01,-4.160081100463867188e+01,-4.125942230224609375e+01,-4.134901046752929688e+01,-4.182162475585937500e+01,-4.222135162353515625e+01,-4.236569595336914062e+01,-4.267337799072265625e+01,-4.319756317138671875e+01,-4.320337677001953125e+01,-4.213558959960937500e+01,-4.084885406494140625e+01,-4.021350860595703125e+01,-4.025024795532226562e+01,-4.048940277099609375e+01,-4.047644805908203125e+01,-3.999481964111328125e+01,-3.943849182128906250e+01,-3.949417877197265625e+01,-4.038249588012695312e+01,-4.156485366821289062e+01,-4.189732360839843750e+01,-4.134436035156250000e+01,-4.076192474365234375e+01,-4.067813491821289062e+01,-4.095852661132812500e+01,-4.107634353637695312e+01,-4.082850265502929688e+01,-4.050796508789062500e+01,-4.040825653076171875e+01,-4.046961975097656250e+01
-2.825060272216796875e+01,-2.758977508544921875e+01,-2.689984512329101562e+01,-2.681159591674804688e+01,-2.735298728942871094e+01,-2.796152877807617188e+01,-2.814497947692871094e+01,-2.828769493103027344e+01,-2.875772857666015625e+01,-2.944617271423339844e+01,-3.002532005310058594e+01,-3.012124633789062500e+01,-2.942567825317382812e+01,-2.856571578979492188e+01,-2.837190628051757812e+01,-2.873116493225097656e+01,-2.844490242004394531e+01,-2.731940460205078125e+01,-2.660056877136230469e+01,-2.650304222106933594e+01,-2.626820182800292969e+01,-2.598117065429687500e+01,-2.643402862548828125e+01,-2.732109260559082031e+01,-2.752069854736328125e+01,-2.752750396728515625e+01,-2.832167053222656250e+01,-2.951361656188964844e+01,-3.035006713867187500e+01,-3.092331314086914062e+01,-3.117022705078125000e+01,-3.110121536254882812e+01,-3.119577407836914062e+01,-3.148462295532226562e+01,-3.176206207275390625e+01,-3.204572677612304688e+01,-3.247541046142578125e+01,-3.299452972412109375e+01,-3.334033966064453125e+01,-3.343693161010742188e+01,-3.381727218627929688e+01,-3.490756988525390625e+01,-3.621963500976562500e+01,-3.688404846191406250e+01,-3.714230346679687500e+01,-3.774860382080078125e+01,-3.870712661743164062e+01,-3.964207458496093750e+01,-4.050294494628906250e+01,-4.123163986206054688e+01,-4.158817672729492188e+01,-4.175070953369140625e+01,-4.162513732910156250e+01,-4.110734558105468750e+01,-4.045022201538085938e+01,-3.997184753417968750e+01,-3.997880172729492188e+01,-4.059967803955078125e+01,-4.147983551025390625e+01,-4.156195068359375000e+01,-4.051256942749023438e+01,-3.955305862426757812e+01,-3.952347183227539062e+01,-4.038793945312500000e+01,-4.126776123046875000e+01,-4.097784042358398438e+01,-3.965344238281250000e+01,-3.841244888305664062e+01,-3.794874954223632812e+01,-3.835864257812500000e+01,-3.933618927001953125e+01,-4.039672470092773438e+01,-4.119461059570312500e+01,-4.133102035522460938e+01,-4.060112762451171875e+01,-3.980356216430664062e+01,-3.952183532714843750e+01,-3.961309432983398438e+01,-3.976650238037109375e+01,-3.995896530151367188e+01,-4.049009704589843750e+01,-4.142119216918945312e+01,-4.212379455566406250e+01,-4.173156356811523438e+01,-4.092598342895507812e+01,-4.041473007202148438e+01,-4.008295440673828125e+01,-4.004600906372070312e+01,-4.051685714721679688e+01,-4.117352676391601562e+01,-4.135407257080078125e+01,-4.089419937133789062e+01,-4.015464782714843750e+01,-3.947119140625000000e+01,-3.903667449951171875e+01,-3.871327972412109375e+01,-3.850137710571289062e+01,-3.874085998535156250e+01,-3.946506500244140625e+01,-3.995033645629882812e+01,-3.982488632202148438e+01,-3.979472351074218750e+01,-4.006355667114257812e+01,-4.022967910766601562e+01,-3.998941040039062500e+01,-3.928750228881835938e+01,-3.856974792480468750e+01,-3.862508392333984375e+01,-3.965803527832031250e+01,-4.075342559814453125e+01,-4.074696731567382812e+01,-4.025671005249023438e+01,-4.000145721435546875e+01,-4.012579345703125000e+01
-2.746841430664062500e+01,-2.643778228759765625e+01,-2.494326782226562500e+01,-2.409700012207031250e+01,-2.411734008789062500e+01,-2.476369285583496094e+01,-2.553443336486816406e+01,-2.588002014160156250e+01,-2.594873619079589844e+01,-2.641881179809570312e+01,-2.712596130371093750e+01,-2.712942695617675781e+01,-2.641378211975097656e+01,-2.576974678039550781e+01,-2.563342666625976562e+01,-2.592980194091796875e+01,-2.606035423278808594e+01,-2.548903465270996094e+01,-2.458012962341308594e+01,-2.385951423645019531e+01,-2.360247802734375000e+01,-2.401096725463867188e+01,-2.486779403686523438e+01,-2.537152290344238281e+01,-2.552624320983886719e+01,-2.617931938171386719e+01,-2.727677154541015625e+01,-2.787148666381835938e+01,-2.801525497436523438e+01,-2.854546356201171875e+01,-2.942463302612304688e+01,-3.005386543273925781e+01,-3.004747581481933594e+01,-2.948025894165039062e+01,-2.884652709960937500e+01,-2.864215278625488281e+01,-2.909782218933105469e+01,-3.011456298828125000e+01,-3.133693695068359375e+01,-3.217352294921875000e+01,-3.246285247802734375e+01,-3.297260665893554688e+01,-3.364708328247070312e+01,-3.336981582641601562e+01,-3.252646255493164062e+01,-3.252410125732421875e+01,-3.371419143676757812e+01,-3.545704650878906250e+01,-3.680000686645507812e+01,-3.772356414794921875e+01,-3.830572891235351562e+01,-3.834155273437500000e+01,-3.778943252563476562e+01,-3.733426666259765625e+01,-3.746929931640625000e+01,-3.798862838745117188e+01,-3.820907211303710938e+01,-3.808578872680664062e+01,-3.811810684204101562e+01,-3.852910614013671875e+01,-3.918908691406250000e+01,-3.959524154663085938e+01,-3.948926544189453125e+01,-3.926153564453125000e+01,-3.889257431030273438e+01,-3.806108856201171875e+01,-3.718829345703125000e+01,-3.676329040527343750e+01,-3.684252548217773438e+01,-3.720993041992187500e+01,-3.770668029785156250e+01,-3.834456634521484375e+01,-3.930377197265625000e+01,-4.025519561767578125e+01,-4.008634185791015625e+01,-3.914304351806640625e+01,-3.871024322509765625e+01,-3.895669937133789062e+01,-3.928366088867187500e+01,-3.908169937133789062e+01,-3.845320892333984375e+01,-3.791342163085937500e+01,-3.770796585083007812e+01,-3.788453674316406250e+01,-3.850977325439453125e+01,-3.938728332519531250e+01,-3.953798675537109375e+01,-3.881195831298828125e+01,-3.831260681152343750e+01,-3.827312850952148438e+01,-3.832682800292968750e+01,-3.828994750976562500e+01,-3.815194320678710938e+01,-3.772896957397460938e+01,-3.734165191650390625e+01,-3.745933532714843750e+01,-3.792124557495117188e+01,-3.813681793212890625e+01,-3.815879821777343750e+01,-3.847798156738281250e+01,-3.899380874633789062e+01,-3.918247985839843750e+01,-3.901927185058593750e+01,-3.899131774902343750e+01,-3.905162429809570312e+01,-3.845692825317382812e+01,-3.735659027099609375e+01,-3.697261047363281250e+01,-3.746681976318359375e+01,-3.771986389160156250e+01,-3.722815704345703125e+01,-3.690823745727539062e+01,-3.682946777343750000e+01,-3.669259262084960938e+01
-2.723920822143554688e+01,-2.605042076110839844e+01,-2.521307754516601562e+01,-2.545153427124023438e+01,-2.645789337158203125e+01,-2.722132873535156250e+01,-2.718911743164062500e+01,-2.642428779602050781e+01,-2.555297660827636719e+01,-2.545207023620605469e+01,-2.616522979736328125e+01,-2.694023323059082031e+01,-2.724136734008789062e+01,-2.738663101196289062e+01,-2.719964218139648438e+01,-2.658159637451171875e+01,-2.620817756652832031e+01,-2.632486534118652344e+01,-2.632186508178710938e+01,-2.556988143920898438e+01,-2.476445579528808594e+01,-2.465217590332031250e+01,-2.508899688720703125e+01,-2.556657409667968750e+01,-2.620773696899414062e+01,-2.746690368652343750e+01,-2.881978988647460938e+01,-2.914278411865234375e+01,-2.888707923889160156e+01,-2.904133033752441406e+01,-2.956680870056152344e+01,-2.996167945861816406e+01,-3.003614997863769531e+01,-2.980564308166503906e+01,-2.961477851867675781e+01,-2.990829467773437500e+01,-3.069727325439453125e+01,-3.130237770080566406e+01,-3.143693161010742188e+01,-3.180384826660156250e+01,-3.258791732788085938e+01,-3.308158493041992188e+01,-3.292337036132812500e+01,-3.279070663452148438e+01,-3.322452545166015625e+01,-3.433072280883789062e+01,-3.581212234497070312e+01,-3.701080703735351562e+01,-3.751123046875000000e+01,-3.767869567871093750e+01,-3.779805755615234375e+01,-3.789781570434570312e+01,-3.794756317138671875e+01,-3.799157333374023438e+01,-3.823291015625000000e+01,-3.875779724121093750e+01,-3.899870300292968750e+01,-3.820372772216796875e+01,-3.714523696899414062e+01,-3.665182495117187500e+01,-3.649474334716796875e+01,-3.642488861083984375e+01,-3.656040191650390625e+01,-3.692972564697265625e+01,-3.725861358642578125e+01,-3.758077621459960938e+01,-3.799916076660156250e+01,-3.791510772705078125e+01,-3.713530731201171875e+01,-3.616541671752929688e+01,-3.581259918212890625e+01,-3.653092956542968750e+01,-3.810650634765625000e+01,-3.908860778808593750e+01,-3.843831634521484375e+01,-3.784513092041015625e+01,-3.792159271240234375e+01,-3.799571609497070312e+01,-3.767255020141601562e+01,-3.746347808837890625e+01,-3.760749053955078125e+01,-3.786885833740234375e+01,-3.838343811035156250e+01,-3.932421875000000000e+01,-4.031248855590820312e+01,-4.080800628662109375e+01,-4.084943389892578125e+01,-4.062594604492187500e+01,-3.996122741699218750e+01,-3.872468185424804688e+01,-3.737234115600585938e+01,-3.659471130371093750e+01,-3.672612380981445312e+01,-3.761115646362304688e+01,-3.855650329589843750e+01,-3.889224624633789062e+01,-3.888383483886718750e+01,-3.890016937255859375e+01,-3.883099365234375000e+01,-3.864480590820312500e+01,-3.862739944458007812e+01,-3.898861694335937500e+01,-3.957634735107421875e+01,-3.988729476928710938e+01,-3.926443099975585938e+01,-3.799367904663085938e+01,-3.702365112304687500e+01,-3.677676391601562500e+01,-3.704228591918945312e+01,-3.754145812988281250e+01,-3.840274429321289062e+01,-3.951680374145507812e+01,-3.972293090820312500e+01,-3.884643936157226562e+01
-2.629358291625976562e+01,-2.662685775756835938e+01,-2.730366897583007812e+01,-2.769244766235351562e+01,-2.758794021606445312e+01,-2.720314025878906250e+01,-2.672598266601562500e+01,-2.624183654785156250e+01,-2.588996887207031250e+01,-2.584867858886718750e+01,-2.593114089965820312e+01,-2.583078002929687500e+01,-2.581457328796386719e+01,-2.635730934143066406e+01,-2.717699623107910156e+01,-2.703067970275878906e+01,-2.597988891601562500e+01,-2.503282928466796875e+01,-2.418279266357421875e+01,-2.323584365844726562e+01,-2.261751747131347656e+01,-2.257700347900390625e+01,-2.278285980224609375e+01,-2.307484817504882812e+01,-2.390707778930664062e+01,-2.563552856445312500e+01,-2.772507476806640625e+01,-2.860939598083496094e+01,-2.787343215942382812e+01,-2.693558502197265625e+01,-2.666642570495605469e+01,-2.705989837646484375e+01,-2.769120407104492188e+01,-2.830028343200683594e+01,-2.905986022949218750e+01,-2.978457641601562500e+01,-2.961201095581054688e+01,-2.888795280456542969e+01,-2.870692634582519531e+01,-2.928141403198242188e+01,-3.016898155212402344e+01,-3.100013351440429688e+01,-3.190313529968261719e+01,-3.299392318725585938e+01,-3.419992065429687500e+01,-3.524222946166992188e+01,-3.572251510620117188e+01,-3.619102478027343750e+01,-3.693455505371093750e+01,-3.707704925537109375e+01,-3.649704742431640625e+01,-3.617798995971679688e+01,-3.642657470703125000e+01,-3.679177093505859375e+01,-3.695311737060546875e+01,-3.716385269165039062e+01,-3.773225402832031250e+01,-3.851949691772460938e+01,-3.886083221435546875e+01,-3.811641311645507812e+01,-3.654817199707031250e+01,-3.540144348144531250e+01,-3.542193603515625000e+01,-3.671336364746093750e+01,-3.857933044433593750e+01,-3.952982330322265625e+01,-3.928218841552734375e+01,-3.848204803466796875e+01,-3.783457565307617188e+01,-3.760239410400390625e+01,-3.781007766723632812e+01,-3.844265747070312500e+01,-3.935930633544921875e+01,-3.965393829345703125e+01,-3.882579040527343750e+01,-3.797709655761718750e+01,-3.758702087402343750e+01,-3.755914688110351562e+01,-3.764376068115234375e+01,-3.778858184814453125e+01,-3.805511474609375000e+01,-3.832063674926757812e+01,-3.849386596679687500e+01,-3.878964233398437500e+01,-3.956099700927734375e+01,-4.056017303466796875e+01,-4.093310546875000000e+01,-4.089082336425781250e+01,-4.110086059570312500e+01,-4.117572402954101562e+01,-4.047983551025390625e+01,-3.951152801513671875e+01,-3.916274642944335938e+01,-3.949060821533203125e+01,-3.974341583251953125e+01,-3.915039062500000000e+01,-3.835352325439453125e+01,-3.804634475708007812e+01,-3.803812026977539062e+01,-3.791630935668945312e+01,-3.767542648315429688e+01,-3.755043792724609375e+01,-3.743512725830078125e+01,-3.720741271972656250e+01,-3.674998092651367188e+01,-3.586793518066406250e+01,-3.508370971679687500e+01,-3.510764312744140625e+01,-3.598471450805664062e+01,-3.711030578613281250e+01,-3.791698837280273438e+01,-3.823509979248046875e+01,-3.783051681518554688e+01,-3.736220550537109375e+01
-2.494154357910156250e+01,-2.470484161376953125e+01,-2.487519073486328125e+01,-2.547602462768554688e+01,-2.588480758666992188e+01,-2.533227920532226562e+01,-2.454896736145019531e+01,-2.451631927490234375e+01,-2.520525932312011719e+01,-2.587779998779296875e+01,-2.586973190307617188e+01,-2.537546539306640625e+01,-2.476452255249023438e+01,-2.422066307067871094e+01,-2.383238410949707031e+01,-2.344976806640625000e+01,-2.270901870727539062e+01,-2.178490066528320312e+01,-2.135149383544921875e+01,-2.173173141479492188e+01,-2.260072326660156250e+01,-2.314606094360351562e+01,-2.316701889038085938e+01,-2.327348327636718750e+01,-2.391934967041015625e+01,-2.511044311523437500e+01,-2.651453018188476562e+01,-2.739959907531738281e+01,-2.716868782043457031e+01,-2.657029151916503906e+01,-2.642931747436523438e+01,-2.659974288940429688e+01,-2.663690376281738281e+01,-2.691942024230957031e+01,-2.802085304260253906e+01,-2.973883056640625000e+01,-3.078010749816894531e+01,-3.051491355895996094e+01,-2.970476913452148438e+01,-2.925807762145996094e+01,-2.977951431274414062e+01,-3.138713455200195312e+01,-3.330208587646484375e+01,-3.422094345092773438e+01,-3.451661682128906250e+01,-3.487995147705078125e+01,-3.551588439941406250e+01,-3.677440261840820312e+01,-3.898275756835937500e+01,-4.095967864990234375e+01,-4.031979751586914062e+01,-3.859132385253906250e+01,-3.762714767456054688e+01,-3.757989501953125000e+01,-3.789550018310546875e+01,-3.825532913208007812e+01,-3.890493011474609375e+01,-3.972792816162109375e+01,-3.990999603271484375e+01,-3.905820846557617188e+01,-3.763373947143554688e+01,-3.646186828613281250e+01,-3.620455932617187500e+01,-3.692547988891601562e+01,-3.783148574829101562e+01,-3.779833602905273438e+01,-3.735293579101562500e+01,-3.743081283569335938e+01,-3.802504730224609375e+01,-3.847157287597656250e+01,-3.835089874267578125e+01,-3.799841308593750000e+01,-3.779489135742187500e+01,-3.764843750000000000e+01,-3.735679626464843750e+01,-3.699711227416992188e+01,-3.661883544921875000e+01,-3.627813339233398438e+01,-3.628823089599609375e+01,-3.691659164428710938e+01,-3.776820373535156250e+01,-3.806785583496093750e+01,-3.781580352783203125e+01,-3.751256179809570312e+01,-3.755401611328125000e+01,-3.812796020507812500e+01,-3.856920623779296875e+01,-3.815942382812500000e+01,-3.767118072509765625e+01,-3.734961700439453125e+01,-3.660618209838867188e+01,-3.586602020263671875e+01,-3.602365493774414062e+01,-3.700922775268554688e+01,-3.761429595947265625e+01,-3.735334014892578125e+01,-3.724259948730468750e+01,-3.752463531494140625e+01,-3.740616989135742188e+01,-3.667338562011718750e+01,-3.617713165283203125e+01,-3.620239257812500000e+01,-3.620002365112304688e+01,-3.595485687255859375e+01,-3.611181640625000000e+01,-3.690579986572265625e+01,-3.741438293457031250e+01,-3.697925949096679688e+01,-3.650576400756835938e+01,-3.651934051513671875e+01,-3.667000198364257812e+01,-3.656700134277343750e+01,-3.641860961914062500e+01,-3.667493057250976562e+01
-2.294620132446289062e+01,-2.271452331542968750e+01,-2.277698516845703125e+01,-2.316135787963867188e+01,-2.369969558715820312e+01,-2.385400581359863281e+01,-2.370935440063476562e+01,-2.368037033081054688e+01,-2.372363662719726562e+01,-2.364933395385742188e+01,-2.325440597534179688e+01,-2.268671798706054688e+01,-2.257012748718261719e+01,-2.323761367797851562e+01,-2.437839889526367188e+01,-2.520534324645996094e+01,-2.521420478820800781e+01,-2.452533721923828125e+01,-2.372627067565917969e+01,-2.317183876037597656e+01,-2.274875640869140625e+01,-2.246590042114257812e+01,-2.243733215332031250e+01,-2.269756698608398438e+01,-2.322493553161621094e+01,-2.397111129760742188e+01,-2.467969512939453125e+01,-2.501534461975097656e+01,-2.507722663879394531e+01,-2.517264747619628906e+01,-2.517531585693359375e+01,-2.469279861450195312e+01,-2.398422813415527344e+01,-2.375960159301757812e+01,-2.434189987182617188e+01,-2.560585784912109375e+01,-2.714326477050781250e+01,-2.843846893310546875e+01,-2.936632537841796875e+01,-3.004198646545410156e+01,-3.042759704589843750e+01,-3.059592247009277344e+01,-3.106042289733886719e+01,-3.201546859741210938e+01,-3.286962890625000000e+01,-3.334207153320312500e+01,-3.401316833496093750e+01,-3.511856460571289062e+01,-3.644937896728515625e+01,-3.737716674804687500e+01,-3.741391372680664062e+01,-3.671435546875000000e+01,-3.571936798095703125e+01,-3.479576110839843750e+01,-3.435642242431640625e+01,-3.460969924926757812e+01,-3.530708694458007812e+01,-3.580773925781250000e+01,-3.585020446777343750e+01,-3.587414169311523438e+01,-3.601570892333984375e+01,-3.631677246093750000e+01,-3.686827468872070312e+01,-3.731454849243164062e+01,-3.719904708862304688e+01,-3.683988189697265625e+01,-3.668229293823242188e+01,-3.635249328613281250e+01,-3.549478149414062500e+01,-3.470154953002929688e+01,-3.473001098632812500e+01,-3.569882965087890625e+01,-3.680912780761718750e+01,-3.699382019042968750e+01,-3.632502746582031250e+01,-3.545140075683593750e+01,-3.511504745483398438e+01,-3.552538299560546875e+01,-3.605960845947265625e+01,-3.601178741455078125e+01,-3.550186157226562500e+01,-3.486365890502929688e+01,-3.445662307739257812e+01,-3.461904525756835938e+01,-3.523719787597656250e+01,-3.589622497558593750e+01,-3.625609207153320312e+01,-3.634598541259765625e+01,-3.621820068359375000e+01,-3.572174072265625000e+01,-3.512313842773437500e+01,-3.488387298583984375e+01,-3.512282180786132812e+01,-3.554091644287109375e+01,-3.585616302490234375e+01,-3.610968017578125000e+01,-3.630355072021484375e+01,-3.628421020507812500e+01,-3.627975845336914062e+01,-3.679772186279296875e+01,-3.727111053466796875e+01,-3.652780914306640625e+01,-3.527655410766601562e+01,-3.449204635620117188e+01,-3.437284851074218750e+01,-3.495915985107421875e+01,-3.589777755737304688e+01,-3.588023376464843750e+01,-3.479945755004882812e+01,-3.409522247314453125e+01,-3.416297149658203125e+01,-3.448616790771484375e+01,-3.467290115356445312e+01,-3.481098937988281250e+01
-2.461309242248535156e+01,-2.394672775268554688e+01,-2.354489707946777344e+01,-2.339357185363769531e+01,-2.354139518737792969e+01,-2.394314002990722656e+01,-2.455481910705566406e+01,-2.530505371093750000e+01,-2.591658020019531250e+01,-2.573872947692871094e+01,-2.483690452575683594e+01,-2.391152572631835938e+01,-2.346786689758300781e+01,-2.361066818237304688e+01,-2.422117996215820312e+01,-2.499627876281738281e+01,-2.557363510131835938e+01,-2.583461761474609375e+01,-2.596257209777832031e+01,-2.610511207580566406e+01,-2.590810585021972656e+01,-2.510166740417480469e+01,-2.409683609008789062e+01,-2.376368904113769531e+01,-2.451826667785644531e+01,-2.585350227355957031e+01,-2.661316680908203125e+01,-2.693879318237304688e+01,-2.762479591369628906e+01,-2.817283248901367188e+01,-2.795273017883300781e+01,-2.755297279357910156e+01,-2.764008331298828125e+01,-2.846160888671875000e+01,-2.985027122497558594e+01,-3.101128005981445312e+01,-3.105069923400878906e+01,-3.025396347045898438e+01,-2.977629470825195312e+01,-3.005807685852050781e+01,-3.077527236938476562e+01,-3.144343948364257812e+01,-3.204834747314453125e+01,-3.259186935424804688e+01,-3.284428024291992188e+01,-3.326376724243164062e+01,-3.434151077270507812e+01,-3.591456985473632812e+01,-3.740684127807617188e+01,-3.832967376708984375e+01,-3.852482604980468750e+01,-3.797112655639648438e+01,-3.690756225585937500e+01,-3.605746841430664062e+01,-3.588405227661132812e+01,-3.601750183105468750e+01,-3.578765106201171875e+01,-3.525854110717773438e+01,-3.488694000244140625e+01,-3.494224929809570312e+01,-3.534120178222656250e+01,-3.587184524536132812e+01,-3.648123168945312500e+01,-3.722573089599609375e+01,-3.774261856079101562e+01,-3.728691101074218750e+01,-3.643491363525390625e+01,-3.592996597290039062e+01,-3.566623306274414062e+01,-3.554933166503906250e+01,-3.586112213134765625e+01,-3.670444488525390625e+01,-3.751403427124023438e+01,-3.790128707885742188e+01,-3.803611755371093750e+01,-3.787424468994140625e+01,-3.740524673461914062e+01,-3.677483367919921875e+01,-3.634598541259765625e+01,-3.635805130004882812e+01,-3.655260086059570312e+01,-3.653871154785156250e+01,-3.640525054931640625e+01,-3.620291900634765625e+01,-3.592491149902343750e+01,-3.592835235595703125e+01,-3.639383316040039062e+01,-3.699124526977539062e+01,-3.733784484863281250e+01,-3.746655654907226562e+01,-3.748827743530273438e+01,-3.731914901733398438e+01,-3.687822341918945312e+01,-3.620779418945312500e+01,-3.556332397460937500e+01,-3.518682861328125000e+01,-3.515248107910156250e+01,-3.526599884033203125e+01,-3.546949386596679688e+01,-3.594849395751953125e+01,-3.640382385253906250e+01,-3.615516662597656250e+01,-3.541796112060546875e+01,-3.479973983764648438e+01,-3.454573059082031250e+01,-3.487586212158203125e+01,-3.549801254272460938e+01,-3.549526977539062500e+01,-3.495274734497070312e+01,-3.486602783203125000e+01,-3.538381195068359375e+01,-3.580646514892578125e+01,-3.583192443847656250e+01,-3.586699676513671875e+01
-2.240474510192871094e+01,-2.263516616821289062e+01,-2.297816276550292969e+01,-2.298394966125488281e+01,-2.254973602294921875e+01,-2.205901527404785156e+01,-2.205870437622070312e+01,-2.268302917480468750e+01,-2.347709274291992188e+01,-2.393222999572753906e+01,-2.405764579772949219e+01,-2.405114936828613281e+01,-2.405545234680175781e+01,-2.429523277282714844e+01,-2.463778114318847656e+01,-2.460401916503906250e+01,-2.430594253540039062e+01,-2.396740341186523438e+01,-2.354337692260742188e+01,-2.318224716186523438e+01,-2.312479019165039062e+01,-2.336235237121582031e+01,-2.372785568237304688e+01,-2.428631401062011719e+01,-2.500158691406250000e+01,-2.529833602905273438e+01,-2.507665443420410156e+01,-2.491061782836914062e+01,-2.518731880187988281e+01,-2.595284080505371094e+01,-2.711340332031250000e+01,-2.835828971862792969e+01,-2.929812431335449219e+01,-2.980256843566894531e+01,-2.986384963989257812e+01,-3.003633689880371094e+01,-3.038382720947265625e+01,-3.030833435058593750e+01,-2.997174453735351562e+01,-3.007973098754882812e+01,-3.078570747375488281e+01,-3.176838684082031250e+01,-3.273294830322265625e+01,-3.332663345336914062e+01,-3.337779998779296875e+01,-3.367498779296875000e+01,-3.480992126464843750e+01,-3.659629821777343750e+01,-3.811380767822265625e+01,-3.896431350708007812e+01,-3.926344299316406250e+01,-3.879286575317382812e+01,-3.795355606079101562e+01,-3.754753875732421875e+01,-3.770956039428710938e+01,-3.799415969848632812e+01,-3.786415100097656250e+01,-3.712214660644531250e+01,-3.625436401367187500e+01,-3.580496978759765625e+01,-3.579271697998046875e+01,-3.583677291870117188e+01,-3.587239837646484375e+01,-3.606128311157226562e+01,-3.626303863525390625e+01,-3.630352020263671875e+01,-3.626198196411132812e+01,-3.625434875488281250e+01,-3.605704116821289062e+01,-3.555324935913085938e+01,-3.505396270751953125e+01,-3.496962738037109375e+01,-3.531671142578125000e+01,-3.584328842163085938e+01,-3.646653747558593750e+01,-3.705841827392578125e+01,-3.705685043334960938e+01,-3.635715866088867188e+01,-3.584395599365234375e+01,-3.591032028198242188e+01,-3.625091934204101562e+01,-3.631870651245117188e+01,-3.593370437622070312e+01,-3.560797119140625000e+01,-3.580140686035156250e+01,-3.659178161621093750e+01,-3.745757293701171875e+01,-3.764759063720703125e+01,-3.732198715209960938e+01,-3.709542846679687500e+01,-3.711804580688476562e+01,-3.706746673583984375e+01,-3.700127792358398438e+01,-3.699382781982421875e+01,-3.659857940673828125e+01,-3.573650741577148438e+01,-3.496232604980468750e+01,-3.460413742065429688e+01,-3.475542449951171875e+01,-3.533082962036132812e+01,-3.575295257568359375e+01,-3.565713500976562500e+01,-3.542886352539062500e+01,-3.536719512939453125e+01,-3.555270767211914062e+01,-3.604486846923828125e+01,-3.630253601074218750e+01,-3.565831756591796875e+01,-3.494509506225585938e+01,-3.484729766845703125e+01,-3.511113739013671875e+01,-3.537073135375976562e+01,-3.578922271728515625e+01,-3.635017776489257812e+01
-2.338381004333496094e+01,-2.353540420532226562e+01,-2.352214241027832031e+01,-2.326103782653808594e+01,-2.258052825927734375e+01,-2.148672103881835938e+01,-2.085671234130859375e+01,-2.130937004089355469e+01,-2.259191131591796875e+01,-2.331678009033203125e+01,-2.292591667175292969e+01,-2.267927932739257812e+01,-2.323739242553710938e+01,-2.430848312377929688e+01,-2.448169136047363281e+01,-2.347841453552246094e+01,-2.284856796264648438e+01,-2.309491729736328125e+01,-2.358300781250000000e+01,-2.339529418945312500e+01,-2.269773483276367188e+01,-2.231153869628906250e+01,-2.261372375488281250e+01,-2.355827331542968750e+01,-2.481482505798339844e+01,-2.582353019714355469e+01,-2.623256683349609375e+01,-2.621999359130859375e+01,-2.632635879516601562e+01,-2.683228683471679688e+01,-2.747823715209960938e+01,-2.788742065429687500e+01,-2.788378715515136719e+01,-2.747745704650878906e+01,-2.707970046997070312e+01,-2.734504318237304688e+01,-2.849000930786132812e+01,-2.997069168090820312e+01,-3.084658622741699219e+01,-3.110359191894531250e+01,-3.118049430847167969e+01,-3.123383140563964844e+01,-3.140082931518554688e+01,-3.194070053100585938e+01,-3.299024581909179688e+01,-3.417060470581054688e+01,-3.461402893066406250e+01,-3.456721878051757812e+01,-3.494390106201171875e+01,-3.579055023193359375e+01,-3.633109283447265625e+01,-3.632128906250000000e+01,-3.602514266967773438e+01,-3.571232223510742188e+01,-3.586717224121093750e+01,-3.666811370849609375e+01,-3.712222290039062500e+01,-3.646315002441406250e+01,-3.586126708984375000e+01,-3.602257537841796875e+01,-3.649133682250976562e+01,-3.634955215454101562e+01,-3.571623611450195312e+01,-3.533432006835937500e+01,-3.542831420898437500e+01,-3.559313201904296875e+01,-3.534978866577148438e+01,-3.494715118408203125e+01,-3.498589706420898438e+01,-3.536844635009765625e+01,-3.543697738647460938e+01,-3.535167694091796875e+01,-3.573787307739257812e+01,-3.633497238159179688e+01,-3.620608520507812500e+01,-3.561330032348632812e+01,-3.534023666381835938e+01,-3.543916702270507812e+01,-3.561602020263671875e+01,-3.587726593017578125e+01,-3.656784439086914062e+01,-3.772891616821289062e+01,-3.847076416015625000e+01,-3.786986541748046875e+01,-3.710918807983398438e+01,-3.720219421386718750e+01,-3.795302963256835938e+01,-3.802378845214843750e+01,-3.698818969726562500e+01,-3.595832824707031250e+01,-3.540209960937500000e+01,-3.541770935058593750e+01,-3.598265838623046875e+01,-3.674160766601562500e+01,-3.688127136230468750e+01,-3.645971679687500000e+01,-3.635878753662109375e+01,-3.684965515136718750e+01,-3.765652847290039062e+01,-3.789308929443359375e+01,-3.701990509033203125e+01,-3.585709381103515625e+01,-3.491743087768554688e+01,-3.438483047485351562e+01,-3.448824310302734375e+01,-3.520415115356445312e+01,-3.577970886230468750e+01,-3.557881164550781250e+01,-3.525192260742187500e+01,-3.519730377197265625e+01,-3.536586380004882812e+01,-3.582906341552734375e+01,-3.660323333740234375e+01,-3.721209716796875000e+01
-2.224385833740234375e+01,-2.224365615844726562e+01,-2.205667114257812500e+01,-2.170646667480468750e+01,-2.148737716674804688e+01,-2.176693153381347656e+01,-2.266775131225585938e+01,-2.356798362731933594e+01,-2.359837341308593750e+01,-2.323916244506835938e+01,-2.334487915039062500e+01,-2.376770019531250000e+01,-2.390838623046875000e+01,-2.380046653747558594e+01,-2.362339019775390625e+01,-2.330858802795410156e+01,-2.304946517944335938e+01,-2.316342735290527344e+01,-2.364631652832031250e+01,-2.409144020080566406e+01,-2.422174453735351562e+01,-2.421225357055664062e+01,-2.446255493164062500e+01,-2.504011726379394531e+01,-2.566513442993164062e+01,-2.627351951599121094e+01,-2.695909881591796875e+01,-2.744687652587890625e+01,-2.731203651428222656e+01,-2.709682846069335938e+01,-2.747853279113769531e+01,-2.844463920593261719e+01,-2.922841262817382812e+01,-2.907106590270996094e+01,-2.833641815185546875e+01,-2.781168365478515625e+01,-2.780728912353515625e+01,-2.834410858154296875e+01,-2.936562347412109375e+01,-3.054629898071289062e+01,-3.127162361145019531e+01,-3.123935127258300781e+01,-3.105607414245605469e+01,-3.145059776306152344e+01,-3.260302352905273438e+01,-3.397570419311523438e+01,-3.502650833129882812e+01,-3.609093475341796875e+01,-3.708973693847656250e+01,-3.692362594604492188e+01,-3.561882019042968750e+01,-3.458505249023437500e+01,-3.415415191650390625e+01,-3.403831100463867188e+01,-3.408101272583007812e+01,-3.400936889648437500e+01,-3.354494857788085938e+01,-3.325726318359375000e+01,-3.375466918945312500e+01,-3.481310653686523438e+01,-3.569894790649414062e+01,-3.615174102783203125e+01,-3.616999816894531250e+01,-3.577381134033203125e+01,-3.560609436035156250e+01,-3.557366943359375000e+01,-3.485586547851562500e+01,-3.389454650878906250e+01,-3.367479324340820312e+01,-3.425178146362304688e+01,-3.513280487060546875e+01,-3.598794555664062500e+01,-3.634966278076171875e+01,-3.581956481933593750e+01,-3.512842941284179688e+01,-3.513459777832031250e+01,-3.575231933593750000e+01,-3.621306610107421875e+01,-3.621163940429687500e+01,-3.629601287841796875e+01,-3.664721679687500000e+01,-3.686087036132812500e+01,-3.701179885864257812e+01,-3.741016769409179688e+01,-3.760512924194335938e+01,-3.710556030273437500e+01,-3.651024627685546875e+01,-3.638786315917968750e+01,-3.672979736328125000e+01,-3.704894256591796875e+01,-3.663010787963867188e+01,-3.567032241821289062e+01,-3.509038543701171875e+01,-3.516479110717773438e+01,-3.551936721801757812e+01,-3.560889434814453125e+01,-3.539986419677734375e+01,-3.539598846435546875e+01,-3.571881103515625000e+01,-3.567008972167968750e+01,-3.508025360107421875e+01,-3.486727905273437500e+01,-3.531697845458984375e+01,-3.584393310546875000e+01,-3.603586959838867188e+01,-3.609212875366210938e+01,-3.609570693969726562e+01,-3.593758392333984375e+01,-3.577786254882812500e+01,-3.571047210693359375e+01,-3.535958862304687500e+01,-3.476551437377929688e+01,-3.453060531616210938e+01,-3.460488510131835938e+01
-2.455643081665039062e+01,-2.424157142639160156e+01,-2.400264739990234375e+01,-2.382835197448730469e+01,-2.351796340942382812e+01,-2.317155456542968750e+01,-2.297732925415039062e+01,-2.293377304077148438e+01,-2.282398605346679688e+01,-2.269641304016113281e+01,-2.279754638671875000e+01,-2.280783843994140625e+01,-2.243613433837890625e+01,-2.219543457031250000e+01,-2.260472297668457031e+01,-2.339137077331542969e+01,-2.367581939697265625e+01,-2.332550811767578125e+01,-2.313176918029785156e+01,-2.334854125976562500e+01,-2.342811775207519531e+01,-2.315856552124023438e+01,-2.322395324707031250e+01,-2.404876327514648438e+01,-2.540241241455078125e+01,-2.656318473815917969e+01,-2.693375778198242188e+01,-2.702183532714843750e+01,-2.734714508056640625e+01,-2.761483383178710938e+01,-2.775953483581542969e+01,-2.830362129211425781e+01,-2.896135520935058594e+01,-2.884629631042480469e+01,-2.819932746887207031e+01,-2.775929069519042969e+01,-2.765596961975097656e+01,-2.782721138000488281e+01,-2.837783241271972656e+01,-2.940334510803222656e+01,-3.068897628784179688e+01,-3.165977478027343750e+01,-3.219123840332031250e+01,-3.262030792236328125e+01,-3.266725540161132812e+01,-3.223848342895507812e+01,-3.234756088256835938e+01,-3.366315841674804688e+01,-3.594355010986328125e+01,-3.749128723144531250e+01,-3.710292816162109375e+01,-3.640101623535156250e+01,-3.610250091552734375e+01,-3.601729583740234375e+01,-3.561310577392578125e+01,-3.465081405639648438e+01,-3.386048889160156250e+01,-3.398850250244140625e+01,-3.504771804809570312e+01,-3.602610778808593750e+01,-3.592368316650390625e+01,-3.526687622070312500e+01,-3.461360549926757812e+01,-3.438713836669921875e+01,-3.497394180297851562e+01,-3.611716461181640625e+01,-3.666908645629882812e+01,-3.629990005493164062e+01,-3.584477233886718750e+01,-3.572206878662109375e+01,-3.599066925048828125e+01,-3.645441818237304688e+01,-3.667621612548828125e+01,-3.654400253295898438e+01,-3.635583496093750000e+01,-3.630773162841796875e+01,-3.636249923706054688e+01,-3.643077087402343750e+01,-3.651758956909179688e+01,-3.677732086181640625e+01,-3.717070007324218750e+01,-3.727551269531250000e+01,-3.700964355468750000e+01,-3.691130065917968750e+01,-3.717587280273437500e+01,-3.727825164794921875e+01,-3.689590454101562500e+01,-3.632231903076171875e+01,-3.574462127685546875e+01,-3.534162139892578125e+01,-3.543568038940429688e+01,-3.603018569946289062e+01,-3.653686141967773438e+01,-3.653159332275390625e+01,-3.629447174072265625e+01,-3.598305130004882812e+01,-3.579582214355468750e+01,-3.615892791748046875e+01,-3.707965850830078125e+01,-3.747314071655273438e+01,-3.689347076416015625e+01,-3.638280105590820312e+01,-3.622838211059570312e+01,-3.609532928466796875e+01,-3.596876525878906250e+01,-3.613212585449218750e+01,-3.658314132690429688e+01,-3.702492904663085938e+01,-3.700346755981445312e+01,-3.655108642578125000e+01,-3.596648025512695312e+01,-3.550457763671875000e+01,-3.535122680664062500e+01,-3.548086929321289062e+01
-2.486335945129394531e+01,-2.550921440124511719e+01,-2.591185951232910156e+01,-2.592493438720703125e+01,-2.559663391113281250e+01,-2.520761489868164062e+01,-2.508782958984375000e+01,-2.546054649353027344e+01,-2.624618911743164062e+01,-2.686645698547363281e+01,-2.630649948120117188e+01,-2.453789520263671875e+01,-2.307798004150390625e+01,-2.281545829772949219e+01,-2.375999641418457031e+01,-2.531339645385742188e+01,-2.655541801452636719e+01,-2.720875167846679688e+01,-2.738432312011718750e+01,-2.712239074707031250e+01,-2.671862030029296875e+01,-2.612072944641113281e+01,-2.543177795410156250e+01,-2.508581733703613281e+01,-2.534350776672363281e+01,-2.584752845764160156e+01,-2.606358718872070312e+01,-2.618826484680175781e+01,-2.658833503723144531e+01,-2.717862892150878906e+01,-2.752648544311523438e+01,-2.748506546020507812e+01,-2.730872344970703125e+01,-2.735029029846191406e+01,-2.782319450378417969e+01,-2.866397666931152344e+01,-2.952833747863769531e+01,-3.018038177490234375e+01,-3.077407455444335938e+01,-3.137062454223632812e+01,-3.168995857238769531e+01,-3.193956756591796875e+01,-3.264890289306640625e+01,-3.397863769531250000e+01,-3.520304870605468750e+01,-3.544986724853515625e+01,-3.558820343017578125e+01,-3.665466690063476562e+01,-3.859578704833984375e+01,-3.954039001464843750e+01,-3.865906143188476562e+01,-3.783422851562500000e+01,-3.758001708984375000e+01,-3.762960052490234375e+01,-3.773409271240234375e+01,-3.766387176513671875e+01,-3.743763351440429688e+01,-3.737964248657226562e+01,-3.750901794433593750e+01,-3.734605026245117188e+01,-3.688260650634765625e+01,-3.674304580688476562e+01,-3.708913040161132812e+01,-3.747131729125976562e+01,-3.759927749633789062e+01,-3.773788452148437500e+01,-3.781947326660156250e+01,-3.757341384887695312e+01,-3.721474075317382812e+01,-3.721354675292968750e+01,-3.771123504638671875e+01,-3.828475189208984375e+01,-3.832295989990234375e+01,-3.786562728881835938e+01,-3.738856887817382812e+01,-3.718957901000976562e+01,-3.738834762573242188e+01,-3.780842971801757812e+01,-3.801522064208984375e+01,-3.808319854736328125e+01,-3.855607223510742188e+01,-3.942706298828125000e+01,-3.988261413574218750e+01,-3.945368194580078125e+01,-3.861050796508789062e+01,-3.779946136474609375e+01,-3.728438568115234375e+01,-3.733509826660156250e+01,-3.785723114013671875e+01,-3.794694900512695312e+01,-3.704310607910156250e+01,-3.616517639160156250e+01,-3.620838165283203125e+01,-3.723082733154296875e+01,-3.840034103393554688e+01,-3.851140975952148438e+01,-3.800695419311523438e+01,-3.782388305664062500e+01,-3.768238830566406250e+01,-3.702370834350585938e+01,-3.619849395751953125e+01,-3.583689117431640625e+01,-3.612931442260742188e+01,-3.677838134765625000e+01,-3.723532867431640625e+01,-3.737433624267578125e+01,-3.758980941772460938e+01,-3.789597320556640625e+01,-3.778578567504882812e+01,-3.715146636962890625e+01,-3.648941802978515625e+01,-3.628741455078125000e+01,-3.650329971313476562e+01,-3.675674819946289062e+01
-2.499305152893066406e+01,-2.523841476440429688e+01,-2.580283546447753906e+01,-2.569854164123535156e+01,-2.467943572998046875e+01,-2.393637847900390625e+01,-2.401978492736816406e+01,-2.482982254028320312e+01,-2.604636955261230469e+01,-2.708080863952636719e+01,-2.715799331665039062e+01,-2.617406463623046875e+01,-2.506293678283691406e+01,-2.457430648803710938e+01,-2.489542388916015625e+01,-2.565410614013671875e+01,-2.640905570983886719e+01,-2.709665870666503906e+01,-2.739399719238281250e+01,-2.710212898254394531e+01,-2.665888214111328125e+01,-2.613345718383789062e+01,-2.549330711364746094e+01,-2.529697799682617188e+01,-2.597217750549316406e+01,-2.717367362976074219e+01,-2.786367416381835938e+01,-2.775135612487792969e+01,-2.762702941894531250e+01,-2.811254119873046875e+01,-2.889504814147949219e+01,-2.901689338684082031e+01,-2.867488861083984375e+01,-2.881325531005859375e+01,-2.951944351196289062e+01,-3.018095397949218750e+01,-3.047978210449218750e+01,-3.069994544982910156e+01,-3.103401374816894531e+01,-3.155947303771972656e+01,-3.240239334106445312e+01,-3.360101318359375000e+01,-3.488120269775390625e+01,-3.564357376098632812e+01,-3.586015319824218750e+01,-3.611624908447265625e+01,-3.688205718994140625e+01,-3.837438964843750000e+01,-4.015454101562500000e+01,-4.103094100952148438e+01,-4.050288772583007812e+01,-3.906454467773437500e+01,-3.763077926635742188e+01,-3.686830139160156250e+01,-3.690621948242187500e+01,-3.730945968627929688e+01,-3.757455444335937500e+01,-3.800643157958984375e+01,-3.900368499755859375e+01,-4.005275344848632812e+01,-4.007133483886718750e+01,-3.926287460327148438e+01,-3.852111434936523438e+01,-3.801086807250976562e+01,-3.759603881835937500e+01,-3.736354446411132812e+01,-3.750005340576171875e+01,-3.756845474243164062e+01,-3.711325073242187500e+01,-3.689958572387695312e+01,-3.762171936035156250e+01,-3.897844696044921875e+01,-3.970212173461914062e+01,-3.924510955810546875e+01,-3.844657897949218750e+01,-3.799013900756835938e+01,-3.805303192138671875e+01,-3.841201019287109375e+01,-3.870000457763671875e+01,-3.875516510009765625e+01,-3.873198699951171875e+01,-3.889891815185546875e+01,-3.933556365966796875e+01,-3.967464447021484375e+01,-3.941104888916015625e+01,-3.853786468505859375e+01,-3.774938964843750000e+01,-3.773447418212890625e+01,-3.857514572143554688e+01,-3.915772247314453125e+01,-3.839375305175781250e+01,-3.750059509277343750e+01,-3.719662094116210938e+01,-3.695099258422851562e+01,-3.656760406494140625e+01,-3.673108291625976562e+01,-3.776812744140625000e+01,-3.887339782714843750e+01,-3.864411926269531250e+01,-3.756385421752929688e+01,-3.701641845703125000e+01,-3.736776351928710938e+01,-3.818636322021484375e+01,-3.861585235595703125e+01,-3.859790802001953125e+01,-3.864208221435546875e+01,-3.870314025878906250e+01,-3.872156143188476562e+01,-3.890590286254882812e+01,-3.908895874023437500e+01,-3.882652664184570312e+01,-3.823447799682617188e+01,-3.716400146484375000e+01,-3.577696228027343750e+01
-2.649998664855957031e+01,-2.611338043212890625e+01,-2.669300079345703125e+01,-2.760259437561035156e+01,-2.755431747436523438e+01,-2.704577445983886719e+01,-2.709547042846679688e+01,-2.746572875976562500e+01,-2.754693412780761719e+01,-2.733110046386718750e+01,-2.699150085449218750e+01,-2.677714157104492188e+01,-2.696640205383300781e+01,-2.752098083496093750e+01,-2.816695785522460938e+01,-2.865271186828613281e+01,-2.893509483337402344e+01,-2.875614738464355469e+01,-2.791664886474609375e+01,-2.693893241882324219e+01,-2.650123214721679688e+01,-2.675982475280761719e+01,-2.714130592346191406e+01,-2.698892593383789062e+01,-2.683024978637695312e+01,-2.736676788330078125e+01,-2.839807891845703125e+01,-2.909914779663085938e+01,-2.950218009948730469e+01,-3.021160316467285156e+01,-3.080948448181152344e+01,-3.063459587097167969e+01,-3.029998397827148438e+01,-3.082857513427734375e+01,-3.240960693359375000e+01,-3.377981567382812500e+01,-3.316503906250000000e+01,-3.187525939941406250e+01,-3.144963073730468750e+01,-3.226226043701171875e+01,-3.405682373046875000e+01,-3.574026489257812500e+01,-3.619234085083007812e+01,-3.614032363891601562e+01,-3.656866455078125000e+01,-3.760624694824218750e+01,-3.886432647705078125e+01,-4.015443420410156250e+01,-4.146681213378906250e+01,-4.231094360351562500e+01,-4.215727996826171875e+01,-4.137870788574218750e+01,-4.051266479492187500e+01,-3.982059478759765625e+01,-3.960557556152343750e+01,-3.974700164794921875e+01,-3.995306015014648438e+01,-4.032638549804687500e+01,-4.100302124023437500e+01,-4.139448165893554688e+01,-4.095270538330078125e+01,-4.040555191040039062e+01,-4.037210464477539062e+01,-4.073364639282226562e+01,-4.100200271606445312e+01,-4.087536239624023438e+01,-4.069106674194335938e+01,-4.068785858154296875e+01,-4.070273590087890625e+01,-4.074092864990234375e+01,-4.104486846923828125e+01,-4.153285217285156250e+01,-4.140214538574218750e+01,-4.024515914916992188e+01,-3.884659194946289062e+01,-3.818725967407226562e+01,-3.857275009155273438e+01,-3.957507324218750000e+01,-3.989498901367187500e+01,-3.922670745849609375e+01,-3.882630920410156250e+01,-3.930634307861328125e+01,-4.047360229492187500e+01,-4.117850494384765625e+01,-4.079524993896484375e+01,-4.007742309570312500e+01,-3.923540878295898438e+01,-3.854932785034179688e+01,-3.859410858154296875e+01,-3.912300109863281250e+01,-3.884830856323242188e+01,-3.791447830200195312e+01,-3.751258850097656250e+01,-3.763016510009765625e+01,-3.764471054077148438e+01,-3.763298034667968750e+01,-3.784770965576171875e+01,-3.815721511840820312e+01,-3.850564575195312500e+01,-3.897704315185546875e+01,-3.957266235351562500e+01,-4.013512420654296875e+01,-4.038874816894531250e+01,-3.985247421264648438e+01,-3.925057601928710938e+01,-3.925528335571289062e+01,-3.940105056762695312e+01,-3.930805587768554688e+01,-3.941431045532226562e+01,-4.000580596923828125e+01,-4.045379257202148438e+01,-4.004507446289062500e+01,-3.899546051025390625e+01,-3.823747634887695312e+01
-2.764600944519042969e+01,-2.724464035034179688e+01,-2.714945602416992188e+01,-2.735877609252929688e+01,-2.757944297790527344e+01,-2.784276199340820312e+01,-2.824312973022460938e+01,-2.878607559204101562e+01,-2.922452163696289062e+01,-2.889783668518066406e+01,-2.787101745605468750e+01,-2.721292304992675781e+01,-2.753009414672851562e+01,-2.866199493408203125e+01,-2.956123924255371094e+01,-2.893711471557617188e+01,-2.776492691040039062e+01,-2.713612556457519531e+01,-2.716545867919921875e+01,-2.741775512695312500e+01,-2.741728019714355469e+01,-2.742396545410156250e+01,-2.755616760253906250e+01,-2.760338592529296875e+01,-2.771424102783203125e+01,-2.828400421142578125e+01,-2.901124954223632812e+01,-2.913677024841308594e+01,-2.890041732788085938e+01,-2.887117767333984375e+01,-2.930414581298828125e+01,-3.011081695556640625e+01,-3.099316024780273438e+01,-3.199687576293945312e+01,-3.349020385742187500e+01,-3.512029647827148438e+01,-3.584835815429687500e+01,-3.575335693359375000e+01,-3.555903625488281250e+01,-3.581572723388671875e+01,-3.657373428344726562e+01,-3.724672698974609375e+01,-3.718312835693359375e+01,-3.701964569091796875e+01,-3.746301651000976562e+01,-3.833808517456054688e+01,-3.917119216918945312e+01,-3.989294815063476562e+01,-4.081776046752929688e+01,-4.167258834838867188e+01,-4.181587600708007812e+01,-4.146246337890625000e+01,-4.152187347412109375e+01,-4.207436370849609375e+01,-4.240251159667968750e+01,-4.159715652465820312e+01,-4.024552154541015625e+01,-3.978035736083984375e+01,-4.070919799804687500e+01,-4.231705093383789062e+01,-4.248300933837890625e+01,-4.140840911865234375e+01,-4.085792922973632812e+01,-4.118356704711914062e+01,-4.185745239257812500e+01,-4.186239242553710938e+01,-4.128467559814453125e+01,-4.113959503173828125e+01,-4.161480712890625000e+01,-4.224602508544921875e+01,-4.287289810180664062e+01,-4.350013732910156250e+01,-4.315332794189453125e+01,-4.168294143676757812e+01,-4.025916290283203125e+01,-3.949485015869140625e+01,-3.910123443603515625e+01,-3.876287078857421875e+01,-3.876844787597656250e+01,-3.945855331420898438e+01,-4.066119766235351562e+01,-4.154878234863281250e+01,-4.172732162475585938e+01,-4.122628784179687500e+01,-4.057269287109375000e+01,-4.030205535888671875e+01,-4.008122634887695312e+01,-3.945008850097656250e+01,-3.879637145996093750e+01,-3.857068252563476562e+01,-3.859654617309570312e+01,-3.873811340332031250e+01,-3.914038848876953125e+01,-3.944900512695312500e+01,-3.898446273803710938e+01,-3.833441543579101562e+01,-3.818581008911132812e+01,-3.847024917602539062e+01,-3.897896194458007812e+01,-3.975387573242187500e+01,-4.067193603515625000e+01,-4.113990783691406250e+01,-4.087444305419921875e+01,-3.976065444946289062e+01,-3.870275115966796875e+01,-3.859655761718750000e+01,-3.963684082031250000e+01,-4.123169326782226562e+01,-4.169850158691406250e+01,-4.084234237670898438e+01,-4.019376373291015625e+01,-4.025754165649414062e+01,-4.052623748779296875e+01,-4.077403259277343750e+01
-2.745392608642578125e+01,-2.743508720397949219e+01,-2.735304069519042969e+01,-2.694977760314941406e+01,-2.657081794738769531e+01,-2.672035789489746094e+01,-2.746537017822265625e+01,-2.857061195373535156e+01,-2.957511711120605469e+01,-2.970318222045898438e+01,-2.907147026062011719e+01,-2.866474723815917969e+01,-2.887908363342285156e+01,-2.931860351562500000e+01,-2.939419174194335938e+01,-2.908341407775878906e+01,-2.875027847290039062e+01,-2.866459465026855469e+01,-2.880685424804687500e+01,-2.905945205688476562e+01,-2.958568763732910156e+01,-3.033566474914550781e+01,-3.045733451843261719e+01,-2.977005767822265625e+01,-2.928060150146484375e+01,-2.952946853637695312e+01,-3.036816596984863281e+01,-3.118478393554687500e+01,-3.128102493286132812e+01,-3.114454460144042969e+01,-3.173694610595703125e+01,-3.288512420654296875e+01,-3.343088531494140625e+01,-3.321691894531250000e+01,-3.343442535400390625e+01,-3.447789001464843750e+01,-3.567603683471679688e+01,-3.607174682617187500e+01,-3.591435623168945312e+01,-3.608866882324218750e+01,-3.674048614501953125e+01,-3.747770690917968750e+01,-3.796963882446289062e+01,-3.821828460693359375e+01,-3.845109176635742188e+01,-3.886119079589843750e+01,-3.953213119506835938e+01,-4.058088684082031250e+01,-4.195065307617187500e+01,-4.324446868896484375e+01,-4.362700653076171875e+01,-4.316395187377929688e+01,-4.256072998046875000e+01,-4.189055633544921875e+01,-4.135674667358398438e+01,-4.138933944702148438e+01,-4.187615966796875000e+01,-4.193688964843750000e+01,-4.143235778808593750e+01,-4.124540710449218750e+01,-4.144025039672851562e+01,-4.153463363647460938e+01,-4.167979431152343750e+01,-4.200584411621093750e+01,-4.204450607299804688e+01,-4.179376983642578125e+01,-4.187742996215820312e+01,-4.246632385253906250e+01,-4.324230957031250000e+01,-4.366107559204101562e+01,-4.345923233032226562e+01,-4.303070068359375000e+01,-4.238942337036132812e+01,-4.167728424072265625e+01,-4.139517593383789062e+01,-4.168712615966796875e+01,-4.201628112792968750e+01,-4.191892623901367188e+01,-4.185019302368164062e+01,-4.200234603881835938e+01,-4.187859725952148438e+01,-4.131688690185546875e+01,-4.079313659667968750e+01,-4.052869033813476562e+01,-4.052783203125000000e+01,-4.092993545532226562e+01,-4.175485992431640625e+01,-4.244106292724609375e+01,-4.225101852416992188e+01,-4.154753875732421875e+01,-4.103282546997070312e+01,-4.095170211791992188e+01,-4.115399932861328125e+01,-4.127155685424804688e+01,-4.096539306640625000e+01,-4.049130630493164062e+01,-4.047288513183593750e+01,-4.086943054199218750e+01,-4.072134399414062500e+01,-3.991753387451171875e+01,-3.955601501464843750e+01,-4.006617355346679688e+01,-4.083055877685546875e+01,-4.094728469848632812e+01,-4.054429244995117188e+01,-4.032567214965820312e+01,-4.060351943969726562e+01,-4.114617919921875000e+01,-4.141802978515625000e+01,-4.117247772216796875e+01,-4.087030029296875000e+01,-4.077602386474609375e+01,-4.065971374511718750e+01,-4.041817474365234375e+01
-2.758349418640136719e+01,-2.807220649719238281e+01,-2.891412544250488281e+01,-2.907946205139160156e+01,-2.890225028991699219e+01,-2.890509223937988281e+01,-2.877095603942871094e+01,-2.860635566711425781e+01,-2.889773368835449219e+01,-2.963844871520996094e+01,-3.026965522766113281e+01,-3.043097496032714844e+01,-3.025822830200195312e+01,-2.983729553222656250e+01,-2.950237464904785156e+01,-2.961067199707031250e+01,-3.019707679748535156e+01,-3.072661018371582031e+01,-3.077802276611328125e+01,-3.065524101257324219e+01,-3.058670997619628906e+01,-3.062123489379882812e+01,-3.087508201599121094e+01,-3.139883995056152344e+01,-3.183281707763671875e+01,-3.201537322998046875e+01,-3.223535156250000000e+01,-3.252951049804687500e+01,-3.268734359741210938e+01,-3.277504730224609375e+01,-3.307843399047851562e+01,-3.353634643554687500e+01,-3.403583908081054688e+01,-3.462191009521484375e+01,-3.527186203002929688e+01,-3.566544342041015625e+01,-3.539517974853515625e+01,-3.510412979125976562e+01,-3.545136642456054688e+01,-3.614900207519531250e+01,-3.643571472167968750e+01,-3.673825073242187500e+01,-3.788266754150390625e+01,-3.944526672363281250e+01,-4.018357086181640625e+01,-4.027299499511718750e+01,-4.075722503662109375e+01,-4.191361236572265625e+01,-4.347081375122070312e+01,-4.463839340209960938e+01,-4.482122039794921875e+01,-4.466389465332031250e+01,-4.440152740478515625e+01,-4.335855865478515625e+01,-4.192353057861328125e+01,-4.108648681640625000e+01,-4.106465530395507812e+01,-4.149968719482421875e+01,-4.178990554809570312e+01,-4.156488800048828125e+01,-4.113671493530273438e+01,-4.114825820922851562e+01,-4.162458801269531250e+01,-4.161406707763671875e+01,-4.090028381347656250e+01,-4.042042541503906250e+01,-4.055203628540039062e+01,-4.090670013427734375e+01,-4.110306167602539062e+01,-4.133609771728515625e+01,-4.175233078002929688e+01,-4.184982681274414062e+01,-4.127894210815429688e+01,-4.076340484619140625e+01,-4.075305938720703125e+01,-4.103873443603515625e+01,-4.118680191040039062e+01,-4.091292572021484375e+01,-4.042304611206054688e+01,-4.014861679077148438e+01,-4.022070312500000000e+01,-4.051724243164062500e+01,-4.088009262084960938e+01,-4.117134094238281250e+01,-4.131280517578125000e+01,-4.151161193847656250e+01,-4.203248214721679688e+01,-4.265570831298828125e+01,-4.266732788085937500e+01,-4.193738555908203125e+01,-4.139556884765625000e+01,-4.151704025268554688e+01,-4.188938903808593750e+01,-4.178346633911132812e+01,-4.103377532958984375e+01,-4.027495574951171875e+01,-4.005286407470703125e+01,-4.036872100830078125e+01,-4.079440307617187500e+01,-4.109293365478515625e+01,-4.142123794555664062e+01,-4.160719299316406250e+01,-4.131958389282226562e+01,-4.070983123779296875e+01,-4.008594131469726562e+01,-3.980957031250000000e+01,-4.017391967773437500e+01,-4.107564163208007812e+01,-4.199898529052734375e+01,-4.241828918457031250e+01,-4.213301849365234375e+01,-4.123349761962890625e+01,-4.033088684082031250e+01,-3.985178375244140625e+01
-3.026087951660156250e+01,-3.014781570434570312e+01,-3.070341873168945312e+01,-3.153285026550292969e+01,-3.131358146667480469e+01,-3.024438095092773438e+01,-2.959843635559082031e+01,-2.968779182434082031e+01,-3.014352989196777344e+01,-3.063084602355957031e+01,-3.122257995605468750e+01,-3.179848861694335938e+01,-3.241444778442382812e+01,-3.328651428222656250e+01,-3.362782287597656250e+01,-3.269912719726562500e+01,-3.161213684082031250e+01,-3.101267623901367188e+01,-3.078593063354492188e+01,-3.091845703125000000e+01,-3.146907424926757812e+01,-3.214186096191406250e+01,-3.251433944702148438e+01,-3.270304489135742188e+01,-3.307463073730468750e+01,-3.361183929443359375e+01,-3.396040725708007812e+01,-3.421919250488281250e+01,-3.481022262573242188e+01,-3.556998443603515625e+01,-3.582966613769531250e+01,-3.556826019287109375e+01,-3.542695999145507812e+01,-3.572703170776367188e+01,-3.638409042358398438e+01,-3.700574111938476562e+01,-3.726101303100585938e+01,-3.761544799804687500e+01,-3.850206375122070312e+01,-3.942888641357421875e+01,-3.970129013061523438e+01,-3.985962295532226562e+01,-4.042002868652343750e+01,-4.099040603637695312e+01,-4.141652297973632812e+01,-4.203347778320312500e+01,-4.296765136718750000e+01,-4.428765106201171875e+01,-4.548171997070312500e+01,-4.534127044677734375e+01,-4.446224975585937500e+01,-4.400269317626953125e+01,-4.393820190429687500e+01,-4.383860778808593750e+01,-4.358376693725585938e+01,-4.338692092895507812e+01,-4.331860733032226562e+01,-4.337348175048828125e+01,-4.330556488037109375e+01,-4.286741256713867188e+01,-4.244986724853515625e+01,-4.243158340454101562e+01,-4.268468093872070312e+01,-4.294371795654296875e+01,-4.327383422851562500e+01,-4.371372985839843750e+01,-4.397813415527343750e+01,-4.392710494995117188e+01,-4.363264465332031250e+01,-4.347776031494140625e+01,-4.383147430419921875e+01,-4.454944610595703125e+01,-4.489997100830078125e+01,-4.459349060058593750e+01,-4.417064666748046875e+01,-4.383915328979492188e+01,-4.332808303833007812e+01,-4.266876983642578125e+01,-4.208439254760742188e+01,-4.159542083740234375e+01,-4.148844909667968750e+01,-4.211075210571289062e+01,-4.319027709960937500e+01,-4.340435028076171875e+01,-4.254333877563476562e+01,-4.192834472656250000e+01,-4.213661575317382812e+01,-4.286674118041992188e+01,-4.325981903076171875e+01,-4.307395172119140625e+01,-4.299824523925781250e+01,-4.331575775146484375e+01,-4.353956604003906250e+01,-4.326942825317382812e+01,-4.280458068847656250e+01,-4.240219879150390625e+01,-4.202864837646484375e+01,-4.177631378173828125e+01,-4.183863830566406250e+01,-4.204015350341796875e+01,-4.206519317626953125e+01,-4.215503692626953125e+01,-4.263439559936523438e+01,-4.308359527587890625e+01,-4.289971160888671875e+01,-4.251980972290039062e+01,-4.260862731933593750e+01,-4.317250823974609375e+01,-4.374169540405273438e+01,-4.393922424316406250e+01,-4.345892715454101562e+01,-4.224771881103515625e+01,-4.123283386230468750e+01,-4.093257904052734375e+01
-3.497105789184570312e+01,-3.524470138549804688e+01,-3.479582977294921875e+01,-3.455836105346679688e+01,-3.428709411621093750e+01,-3.356069946289062500e+01,-3.294494628906250000e+01,-3.285845565795898438e+01,-3.297420120239257812e+01,-3.312923431396484375e+01,-3.376482772827148438e+01,-3.498720932006835938e+01,-3.611225509643554688e+01,-3.622509384155273438e+01,-3.570795822143554688e+01,-3.524459838867187500e+01,-3.501431274414062500e+01,-3.505175399780273438e+01,-3.529196929931640625e+01,-3.566297912597656250e+01,-3.612590026855468750e+01,-3.630534362792968750e+01,-3.594686889648437500e+01,-3.581623077392578125e+01,-3.642090988159179688e+01,-3.701096343994140625e+01,-3.667387771606445312e+01,-3.640722274780273438e+01,-3.707450103759765625e+01,-3.848471832275390625e+01,-3.972820281982421875e+01,-4.012215423583984375e+01,-3.987472534179687500e+01,-3.944826507568359375e+01,-3.897985839843750000e+01,-3.860410308837890625e+01,-3.868688201904296875e+01,-3.933919525146484375e+01,-4.035213851928710938e+01,-4.142190170288085938e+01,-4.251512908935546875e+01,-4.346611404418945312e+01,-4.421467590332031250e+01,-4.497881317138671875e+01,-4.574787139892578125e+01,-4.633777618408203125e+01,-4.701281356811523438e+01,-4.834074401855468750e+01,-4.958989715576171875e+01,-4.877791595458984375e+01,-4.735540008544921875e+01,-4.672196197509765625e+01,-4.667454147338867188e+01,-4.666820907592773438e+01,-4.657608795166015625e+01,-4.677577209472656250e+01,-4.738515090942382812e+01,-4.792675018310546875e+01,-4.769764328002929688e+01,-4.709816360473632812e+01,-4.691887664794921875e+01,-4.718959045410156250e+01,-4.747630310058593750e+01,-4.761462783813476562e+01,-4.759942626953125000e+01,-4.726037597656250000e+01,-4.679268646240234375e+01,-4.667708587646484375e+01,-4.685637664794921875e+01,-4.694285202026367188e+01,-4.698373413085937500e+01,-4.736207580566406250e+01,-4.819445037841796875e+01,-4.915344238281250000e+01,-4.977677536010742188e+01,-4.945021438598632812e+01,-4.781709289550781250e+01,-4.616324615478515625e+01,-4.555705261230468750e+01,-4.594639587402343750e+01,-4.663493728637695312e+01,-4.687133789062500000e+01,-4.657003021240234375e+01,-4.585721206665039062e+01,-4.507891464233398438e+01,-4.451945495605468750e+01,-4.419646453857421875e+01,-4.412731552124023438e+01,-4.453644561767578125e+01,-4.563307571411132812e+01,-4.684956359863281250e+01,-4.678517150878906250e+01,-4.566023254394531250e+01,-4.482928848266601562e+01,-4.470588302612304688e+01,-4.497560882568359375e+01,-4.502309417724609375e+01,-4.481687545776367188e+01,-4.485407257080078125e+01,-4.524882507324218750e+01,-4.554061126708984375e+01,-4.553391265869140625e+01,-4.572786712646484375e+01,-4.649378967285156250e+01,-4.747436523437500000e+01,-4.755591583251953125e+01,-4.692974472045898438e+01,-4.655853652954101562e+01,-4.644289779663085938e+01,-4.625762557983398438e+01,-4.597942352294921875e+01,-4.557111358642578125e+01,-4.508161163330078125e+01,-4.486948394775390625e+01
-4.740926361083984375e+01,-4.733585357666015625e+01,-4.668187713623046875e+01,-4.621864318847656250e+01,-4.563085937500000000e+01,-4.520240020751953125e+01,-4.533773803710937500e+01,-4.572622680664062500e+01,-4.581388092041015625e+01,-4.595924377441406250e+01,-4.668048095703125000e+01,-4.750824737548828125e+01,-4.751039123535156250e+01,-4.681484603881835938e+01,-4.605191040039062500e+01,-4.551818084716796875e+01,-4.559656524658203125e+01,-4.652844238281250000e+01,-4.777809143066406250e+01,-4.789097595214843750e+01,-4.690326309204101562e+01,-4.610145568847656250e+01,-4.593167114257812500e+01,-4.632572174072265625e+01,-4.699755859375000000e+01,-4.756298828125000000e+01,-4.790519714355468750e+01,-4.845693588256835938e+01,-4.935654067993164062e+01,-5.020646667480468750e+01,-5.090651702880859375e+01,-5.146802520751953125e+01,-5.140007781982421875e+01,-5.095368194580078125e+01,-5.089785766601562500e+01,-5.126992034912109375e+01,-5.172360229492187500e+01,-5.227314758300781250e+01,-5.306277847290039062e+01,-5.344571304321289062e+01,-5.322795104980468750e+01,-5.339573287963867188e+01,-5.449021911621093750e+01,-5.603730010986328125e+01,-5.693644714355468750e+01,-5.729000854492187500e+01,-5.799341583251953125e+01,-5.929705429077148438e+01,-6.020135498046875000e+01,-5.971162414550781250e+01,-5.883254241943359375e+01,-5.842742919921875000e+01,-5.840119171142578125e+01,-5.846146011352539062e+01,-5.849491119384765625e+01,-5.844443511962890625e+01,-5.834215927124023438e+01,-5.820426177978515625e+01,-5.803763580322265625e+01,-5.789060974121093750e+01,-5.793811416625976562e+01,-5.784041976928710938e+01,-5.715907287597656250e+01,-5.642601013183593750e+01,-5.629385375976562500e+01,-5.685841751098632812e+01,-5.762461090087890625e+01,-5.799797821044921875e+01,-5.805214309692382812e+01,-5.809547424316406250e+01,-5.812033462524414062e+01,-5.840112304687500000e+01,-5.918969726562500000e+01,-5.948992919921875000e+01,-5.886267852783203125e+01,-5.854623794555664062e+01,-5.808758544921875000e+01,-5.685646057128906250e+01,-5.620178985595703125e+01,-5.682888793945312500e+01,-5.799240112304687500e+01,-5.807088851928710938e+01,-5.715829849243164062e+01,-5.640153503417968750e+01,-5.606501007080078125e+01,-5.534320831298828125e+01,-5.421548461914062500e+01,-5.374687194824218750e+01,-5.431606292724609375e+01,-5.535991668701171875e+01,-5.598486709594726562e+01,-5.600608444213867188e+01,-5.576585769653320312e+01,-5.583103561401367188e+01,-5.625581359863281250e+01,-5.632202148437500000e+01,-5.563638687133789062e+01,-5.508956909179687500e+01,-5.531045532226562500e+01,-5.610659408569335938e+01,-5.670008468627929688e+01,-5.684016418457031250e+01,-5.710018157958984375e+01,-5.768581008911132812e+01,-5.864169692993164062e+01,-5.981605148315429688e+01,-5.958254241943359375e+01,-5.758071136474609375e+01,-5.590770721435546875e+01,-5.528359985351562500e+01,-5.554602050781250000e+01,-5.595420837402343750e+01,-5.552397155761718750e+01,-5.466897583007812500e+01
