-4.223947143554687500e+01,-4.331347274780273438e+01,-3.806668853759765625e+01,-3.509881210327148438e+01,-3.442272949218750000e+01,-3.505388259887695312e+01,-3.492975234985351562e+01,-3.317402267456054688e+01,-3.086873245239257812e+01,-2.917848968505859375e+01,-2.891215705871582031e+01,-3.053449630737304688e+01,-3.449541091918945312e+01,-4.132980728149414062e+01,-5.104162597656250000e+01,-5.271295166015625000e+01,-4.720029830932617188e+01,-4.457234954833984375e+01,-4.415827941894531250e+01,-4.544923019409179688e+01,-4.766707611083984375e+01,-4.961498641967773438e+01,-5.018095397949218750e+01,-4.880348205566406250e+01,-4.716457366943359375e+01,-4.647334289550781250e+01,-4.647348403930664062e+01,-4.301035690307617188e+01,-3.867981338500976562e+01,-3.655777359008789062e+01,-3.629387283325195312e+01,-3.700360107421875000e+01,-3.720742416381835938e+01,-3.678915405273437500e+01,-3.697081756591796875e+01,-3.828115081787109375e+01,-4.048532867431640625e+01,-4.189696502685546875e+01,-4.207135772705078125e+01,-4.267605590820312500e+01,-4.453778457641601562e+01,-4.785235214233398438e+01,-5.224927139282226562e+01,-5.299012756347656250e+01,-4.757524871826171875e+01,-4.228401184082031250e+01,-3.953570556640625000e+01,-3.919404602050781250e+01,-3.909403610229492188e+01,-2.988877487182617188e+01,-2.338682365417480469e+01,-2.044365692138671875e+01,-2.016873168945312500e+01,-2.245299339294433594e+01,-2.781577301025390625e+01,-3.672386550903320312e+01,-4.221757507324218750e+01,-3.936297607421875000e+01,-3.753975677490234375e+01,-3.816849899291992188e+01,-4.157437896728515625e+01,-4.890770721435546875e+01,-5.965429306030273438e+01,-6.167919158935546875e+01,-6.103948974609375000e+01,-6.185404968261718750e+01,-6.480194091796875000e+01,-6.882929992675781250e+01,-6.975419616699218750e+01,-6.830101013183593750e+01,-6.619932556152343750e+01,-6.477568054199218750e+01,-6.461853027343750000e+01,-6.566566467285156250e+01,-6.685974884033203125e+01,-6.512088012695312500e+01,-6.003647613525390625e+01,-5.643975830078125000e+01,-5.515527725219726562e+01,-5.602022933959960938e+01,-5.884537124633789062e+01,-6.259191131591796875e+01,-6.514976501464843750e+01,-6.614660644531250000e+01,-6.499614715576171875e+01,-6.348323822021484375e+01,-6.322209167480468750e+01,-6.417074584960937500e+01,-6.130195236206054688e+01,-5.577540588378906250e+01,-5.223611068725585938e+01,-5.035645675659179688e+01,-4.935040283203125000e+01,-4.833017730712890625e+01,-4.639624023437500000e+01,-4.209428787231445312e+01,-3.735470199584960938e+01,-3.439200592041015625e+01,-3.346537780761718750e+01,-3.428101348876953125e+01,-3.596752929687500000e+01,-3.733641433715820312e+01,-3.901631164550781250e+01,-4.273861694335937500e+01,-4.922554397583007812e+01,-5.173190689086914062e+01,-5.069344329833984375e+01,-4.789793014526367188e+01,-4.123408508300781250e+01,-3.684173202514648438e+01,-3.492909240722656250e+01,-3.498457336425781250e+01,-3.551271057128906250e+01,-3.447885513305664062e+01
-4.106368637084960938e+01,-3.935665512084960938e+01,-3.443047714233398438e+01,-3.204319000244140625e+01,-3.203956222534179688e+01,-3.409409713745117188e+01,-3.643008422851562500e+01,-3.525696945190429688e+01,-3.249031829833984375e+01,-3.002618217468261719e+01,-2.882999992370605469e+01,-2.944731521606445312e+01,-3.230142974853515625e+01,-3.818490600585937500e+01,-4.839688873291015625e+01,-5.068614959716796875e+01,-4.462904739379882812e+01,-4.208224487304687500e+01,-4.219583129882812500e+01,-4.475456237792968750e+01,-4.925890350341796875e+01,-5.250962829589843750e+01,-5.416234970092773438e+01,-5.471548080444335938e+01,-5.334344482421875000e+01,-5.151695632934570312e+01,-5.034503936767578125e+01,-4.564630126953125000e+01,-4.011452865600585938e+01,-3.716279602050781250e+01,-3.645302200317382812e+01,-3.743328094482421875e+01,-3.889169311523437500e+01,-3.924979782104492188e+01,-3.902434539794921875e+01,-3.834000015258789062e+01,-3.626419830322265625e+01,-3.454914093017578125e+01,-3.460520172119140625e+01,-3.690672302246093750e+01,-4.185179901123046875e+01,-4.847198486328125000e+01,-5.304691314697265625e+01,-5.346773910522460938e+01,-4.695910263061523438e+01,-4.172747421264648438e+01,-3.928978347778320312e+01,-3.923882675170898438e+01,-3.875346755981445312e+01,-3.198004341125488281e+01,-2.745320892333984375e+01,-2.583197975158691406e+01,-2.663153839111328125e+01,-2.977449798583984375e+01,-3.489849090576171875e+01,-4.028743362426757812e+01,-4.563053131103515625e+01,-4.544149780273437500e+01,-4.417550277709960938e+01,-4.462340164184570312e+01,-4.704330444335937500e+01,-5.179166412353515625e+01,-5.846244430541992188e+01,-5.913504028320312500e+01,-5.806121826171875000e+01,-5.906161117553710938e+01,-6.248543167114257812e+01,-6.719502258300781250e+01,-6.809523773193359375e+01,-6.733636474609375000e+01,-6.675189208984375000e+01,-6.651512145996093750e+01,-6.624815368652343750e+01,-6.557569885253906250e+01,-6.478702545166015625e+01,-6.262745666503906250e+01,-5.858201599121093750e+01,-5.579368972778320312e+01,-5.506282043457031250e+01,-5.635490417480468750e+01,-5.942564010620117188e+01,-6.257810974121093750e+01,-6.327524566650390625e+01,-6.281858062744140625e+01,-6.224820327758789062e+01,-6.168549346923828125e+01,-6.170028686523437500e+01,-6.279015350341796875e+01,-6.379693603515625000e+01,-6.017395019531250000e+01,-5.473342132568359375e+01,-5.085345077514648438e+01,-4.892485809326171875e+01,-4.751673507690429688e+01,-4.338709259033203125e+01,-3.797317123413085938e+01,-3.380604171752929688e+01,-3.179327964782714844e+01,-3.198904418945312500e+01,-3.458679199218750000e+01,-4.034878540039062500e+01,-5.041901397705078125e+01,-5.456998062133789062e+01,-5.454426193237304688e+01,-5.581565093994140625e+01,-5.764393997192382812e+01,-5.768688201904296875e+01,-5.424444580078125000e+01,-4.373410797119140625e+01,-3.666697311401367188e+01,-3.282429504394531250e+01,-3.124903678894042969e+01,-3.140309524536132812e+01,-3.271423339843750000e+01
-3.967261886596679688e+01,-3.753849029541015625e+01,-3.234547805786132812e+01,-2.979256057739257812e+01,-2.961217498779296875e+01,-3.165839767456054688e+01,-3.573563003540039062e+01,-3.832927322387695312e+01,-3.503861618041992188e+01,-3.155330276489257812e+01,-2.991529464721679688e+01,-3.034863662719726562e+01,-3.309113311767578125e+01,-3.885305786132812500e+01,-4.940074920654296875e+01,-5.122877502441406250e+01,-4.458151245117187500e+01,-4.171805572509765625e+01,-4.161598587036132812e+01,-4.414021301269531250e+01,-4.953945159912109375e+01,-5.504705810546875000e+01,-5.673207855224609375e+01,-5.779238128662109375e+01,-5.832146453857421875e+01,-5.659510040283203125e+01,-5.349057769775390625e+01,-4.600886154174804688e+01,-3.957905578613281250e+01,-3.642519378662109375e+01,-3.589814376831054688e+01,-3.773176574707031250e+01,-4.124599456787109375e+01,-4.280405807495117188e+01,-4.241390609741210938e+01,-4.249775695800781250e+01,-4.190921401977539062e+01,-4.055914306640625000e+01,-3.994985580444335938e+01,-4.080476760864257812e+01,-4.323959732055664062e+01,-4.715894699096679688e+01,-5.193902587890625000e+01,-5.419389724731445312e+01,-5.257966232299804688e+01,-5.047775268554687500e+01,-4.848368835449218750e+01,-4.722974777221679688e+01,-4.435868835449218750e+01,-3.854238128662109375e+01,-3.439305877685546875e+01,-3.267057037353515625e+01,-3.321311569213867188e+01,-3.607566452026367188e+01,-4.146866607666015625e+01,-4.798030471801757812e+01,-4.990224456787109375e+01,-4.857378005981445312e+01,-4.786398315429687500e+01,-4.919467163085937500e+01,-5.292698287963867188e+01,-5.877163696289062500e+01,-6.256032562255859375e+01,-6.351780700683593750e+01,-6.415411376953125000e+01,-6.543546295166015625e+01,-6.719380187988281250e+01,-6.700309753417968750e+01,-6.563221740722656250e+01,-6.491015625000000000e+01,-6.479749298095703125e+01,-6.472332000732421875e+01,-6.412837982177734375e+01,-6.355657196044921875e+01,-6.381364440917968750e+01,-6.431114959716796875e+01,-6.164312744140625000e+01,-5.832538223266601562e+01,-5.686508178710937500e+01,-5.737218093872070312e+01,-5.964281463623046875e+01,-6.288751220703125000e+01,-6.492944335937500000e+01,-6.420678710937500000e+01,-6.239958953857421875e+01,-6.136364364624023438e+01,-6.171931838989257812e+01,-6.346872711181640625e+01,-6.396828079223632812e+01,-6.068923950195312500e+01,-5.697107315063476562e+01,-5.354876327514648438e+01,-5.097172546386718750e+01,-4.974550247192382812e+01,-4.968836212158203125e+01,-4.970232391357421875e+01,-4.852857971191406250e+01,-4.683549880981445312e+01,-4.579718780517578125e+01,-4.574537277221679688e+01,-4.642147445678710938e+01,-4.745617294311523438e+01,-4.891385650634765625e+01,-5.130943298339843750e+01,-5.460212707519531250e+01,-5.720143127441406250e+01,-5.878565979003906250e+01,-5.922609710693359375e+01,-5.507777404785156250e+01,-4.636591339111328125e+01,-3.865246582031250000e+01,-3.398178863525390625e+01,-3.197829055786132812e+01,-3.229689407348632812e+01
-3.856440353393554688e+01,-3.566799163818359375e+01,-3.137710571289062500e+01,-2.972421073913574219e+01,-3.039958763122558594e+01,-3.332967376708984375e+01,-3.823102188110351562e+01,-4.158169555664062500e+01,-3.835190963745117188e+01,-3.477715682983398438e+01,-3.295692825317382812e+01,-3.303820037841796875e+01,-3.518456268310546875e+01,-3.991313552856445312e+01,-4.893189239501953125e+01,-5.389784240722656250e+01,-4.714603424072265625e+01,-4.389796829223632812e+01,-4.333651351928710938e+01,-4.521712493896484375e+01,-4.961243057250976562e+01,-5.511824798583984375e+01,-5.818251037597656250e+01,-5.997848510742187500e+01,-6.120623397827148438e+01,-6.138826370239257812e+01,-5.792167663574218750e+01,-4.872917938232421875e+01,-4.188698959350585938e+01,-3.817869567871093750e+01,-3.699964141845703125e+01,-3.813997650146484375e+01,-4.166819763183593750e+01,-4.569253158569335938e+01,-4.442130279541015625e+01,-4.270005416870117188e+01,-4.217147064208984375e+01,-4.199097442626953125e+01,-4.194940948486328125e+01,-4.278582763671875000e+01,-4.520178985595703125e+01,-4.949552154541015625e+01,-5.504862213134765625e+01,-5.479732131958007812e+01,-5.080699920654296875e+01,-4.914315032958984375e+01,-4.989965438842773438e+01,-5.264092254638671875e+01,-5.015531921386718750e+01,-4.362643432617187500e+01,-4.003462219238281250e+01,-3.901707077026367188e+01,-4.030619049072265625e+01,-4.390740585327148438e+01,-4.925268554687500000e+01,-5.353727722167968750e+01,-5.277333831787109375e+01,-4.837999725341796875e+01,-4.600453186035156250e+01,-4.613705444335937500e+01,-4.890271759033203125e+01,-5.504203796386718750e+01,-6.352071380615234375e+01,-6.477481079101562500e+01,-6.502201843261718750e+01,-6.616529083251953125e+01,-6.747944641113281250e+01,-6.757625579833984375e+01,-6.690367889404296875e+01,-6.658112335205078125e+01,-6.677999114990234375e+01,-6.702639770507812500e+01,-6.624451446533203125e+01,-6.452596282958984375e+01,-6.336058044433593750e+01,-6.261654281616210938e+01,-6.035764312744140625e+01,-5.794952774047851562e+01,-5.706687164306640625e+01,-5.793716430664062500e+01,-6.022817993164062500e+01,-6.289193725585937500e+01,-6.421669006347656250e+01,-6.315261840820312500e+01,-6.142672729492187500e+01,-6.067193603515625000e+01,-6.126057815551757812e+01,-6.272356796264648438e+01,-6.254846572875976562e+01,-5.963617706298828125e+01,-5.643621063232421875e+01,-5.388828277587890625e+01,-5.204483795166015625e+01,-5.079497528076171875e+01,-4.964673614501953125e+01,-4.804891204833984375e+01,-4.596053314208984375e+01,-4.350499343872070312e+01,-4.202220916748046875e+01,-4.228738021850585938e+01,-4.458807754516601562e+01,-4.885218811035156250e+01,-5.305898284912109375e+01,-5.646720123291015625e+01,-5.971541595458984375e+01,-5.970805740356445312e+01,-5.942741394042968750e+01,-5.768964004516601562e+01,-5.229043579101562500e+01,-4.826094436645507812e+01,-4.634364700317382812e+01,-4.572415161132812500e+01,-4.465146636962890625e+01,-4.279920196533203125e+01
-4.055635070800781250e+01,-3.589513015747070312e+01,-3.150509643554687500e+01,-2.981153678894042969e+01,-3.043374443054199219e+01,-3.331035232543945312e+01,-3.834698867797851562e+01,-4.291835021972656250e+01,-3.988696670532226562e+01,-3.623003387451171875e+01,-3.478823852539062500e+01,-3.549423217773437500e+01,-3.846982955932617188e+01,-4.420671463012695312e+01,-5.409074401855468750e+01,-5.824590301513671875e+01,-5.082310485839843750e+01,-4.676668930053710938e+01,-4.550033569335937500e+01,-4.671315002441406250e+01,-5.059478759765625000e+01,-5.673476409912109375e+01,-5.920329284667968750e+01,-5.944216918945312500e+01,-5.988932800292968750e+01,-5.937968063354492188e+01,-5.733762359619140625e+01,-5.002223968505859375e+01,-4.169771575927734375e+01,-3.661594009399414062e+01,-3.450843811035156250e+01,-3.490780258178710938e+01,-3.771089553833007812e+01,-4.207312011718750000e+01,-4.384588623046875000e+01,-4.428952026367187500e+01,-4.482979583740234375e+01,-4.509537887573242188e+01,-4.613395309448242188e+01,-4.856912231445312500e+01,-5.216338729858398438e+01,-5.545706939697265625e+01,-5.881598663330078125e+01,-5.868227767944335938e+01,-5.291151046752929688e+01,-4.970096588134765625e+01,-4.906707000732421875e+01,-5.081163787841796875e+01,-5.093512344360351562e+01,-4.473249816894531250e+01,-4.087073516845703125e+01,-3.967550659179687500e+01,-4.074865341186523438e+01,-4.388755798339843750e+01,-4.819576263427734375e+01,-5.211505508422851562e+01,-5.599831390380859375e+01,-5.715592956542968750e+01,-5.606716156005859375e+01,-5.635859680175781250e+01,-5.864962005615234375e+01,-6.263305664062500000e+01,-6.546452331542968750e+01,-6.583409118652343750e+01,-6.654026794433593750e+01,-6.739158630371093750e+01,-6.762976837158203125e+01,-6.776434326171875000e+01,-6.806646728515625000e+01,-6.828955841064453125e+01,-6.836175537109375000e+01,-6.777174377441406250e+01,-6.600680541992187500e+01,-6.416229248046875000e+01,-6.334256744384765625e+01,-6.248748016357421875e+01,-5.901446151733398438e+01,-5.620143890380859375e+01,-5.558657455444335938e+01,-5.724480438232421875e+01,-6.089601898193359375e+01,-6.407141113281250000e+01,-6.456002807617187500e+01,-6.416206359863281250e+01,-6.368162536621093750e+01,-6.341082763671875000e+01,-6.310521316528320312e+01,-6.263545989990234375e+01,-6.223145294189453125e+01,-6.147227096557617188e+01,-5.943269729614257812e+01,-5.746770477294921875e+01,-5.651986694335937500e+01,-5.558435058593750000e+01,-5.241429901123046875e+01,-4.865933609008789062e+01,-4.648419952392578125e+01,-4.573942947387695312e+01,-4.546613311767578125e+01,-4.528366088867187500e+01,-4.590943145751953125e+01,-4.796360778808593750e+01,-5.078360748291015625e+01,-5.225172424316406250e+01,-5.152874374389648438e+01,-4.989123153686523438e+01,-4.884859848022460938e+01,-4.720044708251953125e+01,-4.511044311523437500e+01,-4.427680206298828125e+01,-4.479869842529296875e+01,-4.453576278686523438e+01,-4.304448699951171875e+01,-4.256903839111328125e+01
-4.526695632934570312e+01,-3.934846115112304688e+01,-3.554841613769531250e+01,-3.437509155273437500e+01,-3.535967636108398438e+01,-3.823340606689453125e+01,-4.236930084228515625e+01,-4.666661834716796875e+01,-4.467445373535156250e+01,-4.028748321533203125e+01,-3.828559112548828125e+01,-3.865214920043945312e+01,-4.151469039916992188e+01,-4.755501556396484375e+01,-5.802410507202148438e+01,-6.047516632080078125e+01,-5.230468750000000000e+01,-4.781024169921875000e+01,-4.625562667846679688e+01,-4.724243927001953125e+01,-5.098761749267578125e+01,-5.770175933837890625e+01,-6.118341064453125000e+01,-6.088516998291015625e+01,-6.088464355468750000e+01,-6.080245590209960938e+01,-5.957672500610351562e+01,-5.361618804931640625e+01,-4.579055786132812500e+01,-4.011762237548828125e+01,-3.703708648681640625e+01,-3.570929718017578125e+01,-3.528366088867187500e+01,-3.548886871337890625e+01,-3.673863220214843750e+01,-3.914807128906250000e+01,-3.965947723388671875e+01,-3.796860885620117188e+01,-3.776153945922851562e+01,-3.976962280273437500e+01,-4.409590148925781250e+01,-4.952658081054687500e+01,-5.238493347167968750e+01,-4.899968338012695312e+01,-4.240811920166015625e+01,-3.784401702880859375e+01,-3.580305862426757812e+01,-3.608295059204101562e+01,-3.795767211914062500e+01,-3.751077270507812500e+01,-3.535775375366210938e+01,-3.509025192260742188e+01,-3.728310394287109375e+01,-4.210524749755859375e+01,-4.812473297119140625e+01,-5.231640625000000000e+01,-5.429676055908203125e+01,-5.042819976806640625e+01,-4.804733657836914062e+01,-4.819061279296875000e+01,-5.093374633789062500e+01,-5.682420730590820312e+01,-6.404526519775390625e+01,-6.569425201416015625e+01,-6.588032531738281250e+01,-6.700720214843750000e+01,-6.903574371337890625e+01,-6.982627105712890625e+01,-6.927320861816406250e+01,-6.899137115478515625e+01,-6.859819793701171875e+01,-6.748576354980468750e+01,-6.615010070800781250e+01,-6.547437286376953125e+01,-6.582509613037109375e+01,-6.662307739257812500e+01,-6.508886718750000000e+01,-6.199301910400390625e+01,-6.022674560546875000e+01,-6.029559326171875000e+01,-6.203590774536132812e+01,-6.461286926269531250e+01,-6.597534179687500000e+01,-6.525785827636718750e+01,-6.381267547607421875e+01,-6.292656707763671875e+01,-6.282264709472656250e+01,-6.273825073242187500e+01,-6.199348831176757812e+01,-6.080975341796875000e+01,-5.943047714233398438e+01,-5.854059600830078125e+01,-5.869397735595703125e+01,-5.874974822998046875e+01,-5.709701538085937500e+01,-5.519098663330078125e+01,-5.248552703857421875e+01,-4.841386413574218750e+01,-4.529739379882812500e+01,-4.354962539672851562e+01,-4.314061737060546875e+01,-4.412303924560546875e+01,-4.657720184326171875e+01,-4.893457794189453125e+01,-4.676173019409179688e+01,-4.381968688964843750e+01,-4.253434371948242188e+01,-4.287450408935546875e+01,-4.417240905761718750e+01,-4.537554168701171875e+01,-4.598850250244140625e+01,-4.491735076904296875e+01,-4.267945861816406250e+01,-4.155613708496093750e+01
-4.800841903686523438e+01,-4.044504928588867188e+01,-3.658880615234375000e+01,-3.559150695800781250e+01,-3.710771942138671875e+01,-4.135897827148437500e+01,-4.826506423950195312e+01,-5.193174362182617188e+01,-4.789643096923828125e+01,-4.385684967041015625e+01,-4.193696594238281250e+01,-4.223433685302734375e+01,-4.494758605957031250e+01,-5.090542602539062500e+01,-6.190913009643554688e+01,-6.242922210693359375e+01,-5.685857772827148438e+01,-5.381776428222656250e+01,-5.309804916381835938e+01,-5.442791366577148438e+01,-5.749841308593750000e+01,-6.110321044921875000e+01,-6.333097076416015625e+01,-6.337684631347656250e+01,-6.223015975952148438e+01,-5.990161895751953125e+01,-5.672627258300781250e+01,-5.232370758056640625e+01,-4.532642364501953125e+01,-3.959186935424804688e+01,-3.582319641113281250e+01,-3.344126510620117188e+01,-3.247476959228515625e+01,-3.312875747680664062e+01,-3.566595077514648438e+01,-3.980823516845703125e+01,-4.093369674682617188e+01,-3.922756195068359375e+01,-3.888468170166015625e+01,-4.028668975830078125e+01,-4.312387084960937500e+01,-4.637916183471679688e+01,-4.870139312744140625e+01,-4.573178482055664062e+01,-3.761280441284179688e+01,-3.268702316284179688e+01,-3.052789688110351562e+01,-3.065684890747070312e+01,-3.257741928100585938e+01,-3.373291015625000000e+01,-3.283973312377929688e+01,-3.304944610595703125e+01,-3.567879867553710938e+01,-4.109252929687500000e+01,-4.683762741088867188e+01,-5.056597900390625000e+01,-5.315878295898437500e+01,-5.162640380859375000e+01,-5.078217697143554688e+01,-5.206486129760742188e+01,-5.577963256835937500e+01,-6.186753845214843750e+01,-6.544817352294921875e+01,-6.373330688476562500e+01,-6.254628372192382812e+01,-6.311073303222656250e+01,-6.523670959472656250e+01,-6.736495971679687500e+01,-6.786808776855468750e+01,-6.774824523925781250e+01,-6.716873168945312500e+01,-6.557380676269531250e+01,-6.392447280883789062e+01,-6.336976242065429688e+01,-6.418180847167968750e+01,-6.553187561035156250e+01,-6.518118286132812500e+01,-6.337154388427734375e+01,-6.232338714599609375e+01,-6.261880111694335938e+01,-6.389878845214843750e+01,-6.538624572753906250e+01,-6.641925048828125000e+01,-6.603498840332031250e+01,-6.402477264404296875e+01,-6.242559051513671875e+01,-6.206970596313476562e+01,-6.241072845458984375e+01,-6.185742187500000000e+01,-6.015876388549804688e+01,-5.843849945068359375e+01,-5.701385879516601562e+01,-5.604352569580078125e+01,-5.411641693115234375e+01,-5.084732818603515625e+01,-4.867853927612304688e+01,-4.750369644165039062e+01,-4.603073883056640625e+01,-4.491705322265625000e+01,-4.539907073974609375e+01,-4.810500717163085938e+01,-5.240526199340820312e+01,-5.361273193359375000e+01,-5.295941925048828125e+01,-5.323340606689453125e+01,-5.310958099365234375e+01,-5.106517791748046875e+01,-4.911839675903320312e+01,-4.670669555664062500e+01,-4.430898284912109375e+01,-4.341005706787109375e+01,-4.441009521484375000e+01,-4.616635131835937500e+01,-4.557037353515625000e+01
-5.438575744628906250e+01,-4.713515472412109375e+01,-4.331623840332031250e+01,-4.217029571533203125e+01,-4.331196594238281250e+01,-4.668674468994140625e+01,-5.188172149658203125e+01,-5.693265533447265625e+01,-5.518114471435546875e+01,-5.052353668212890625e+01,-4.814202880859375000e+01,-4.816704940795898438e+01,-5.063311004638671875e+01,-5.604480361938476562e+01,-6.447608947753906250e+01,-6.512898254394531250e+01,-5.947355651855468750e+01,-5.610894775390625000e+01,-5.502922821044921875e+01,-5.582512664794921875e+01,-5.797600173950195312e+01,-6.022500610351562500e+01,-6.104101562500000000e+01,-5.981908035278320312e+01,-5.797867584228515625e+01,-5.677150726318359375e+01,-5.617286682128906250e+01,-5.236421203613281250e+01,-4.610956573486328125e+01,-4.043181991577148438e+01,-3.600321960449218750e+01,-3.323377227783203125e+01,-3.206934356689453125e+01,-3.250366592407226562e+01,-3.458484649658203125e+01,-3.794967269897460938e+01,-3.894437408447265625e+01,-3.689090728759765625e+01,-3.624639129638671875e+01,-3.781518936157226562e+01,-4.186138153076171875e+01,-4.801963806152343750e+01,-5.030942535400390625e+01,-4.590625762939453125e+01,-3.923908996582031250e+01,-3.417665863037109375e+01,-3.138111495971679688e+01,-3.075328063964843750e+01,-3.195131111145019531e+01,-3.360642242431640625e+01,-3.397355270385742188e+01,-3.455702209472656250e+01,-3.711359024047851562e+01,-4.170180130004882812e+01,-4.616579437255859375e+01,-4.986295318603515625e+01,-5.359516143798828125e+01,-5.552836227416992188e+01,-5.602352905273437500e+01,-5.804373931884765625e+01,-6.250896835327148438e+01,-6.740193176269531250e+01,-6.841891479492187500e+01,-6.819541931152343750e+01,-6.719025421142578125e+01,-6.644157409667968750e+01,-6.630866241455078125e+01,-6.665897369384765625e+01,-6.718169403076171875e+01,-6.738218688964843750e+01,-6.713989257812500000e+01,-6.633212280273437500e+01,-6.530952453613281250e+01,-6.476604461669921875e+01,-6.484339904785156250e+01,-6.436352539062500000e+01,-6.174897766113281250e+01,-5.933403015136718750e+01,-5.862883377075195312e+01,-5.987305068969726562e+01,-6.289802551269531250e+01,-6.587171936035156250e+01,-6.583320617675781250e+01,-6.448348999023437500e+01,-6.336578750610351562e+01,-6.252125167846679688e+01,-6.209632873535156250e+01,-6.223410797119140625e+01,-6.147698211669921875e+01,-5.905572509765625000e+01,-5.714008331298828125e+01,-5.575074005126953125e+01,-5.411457824707031250e+01,-5.242774963378906250e+01,-5.115194702148437500e+01,-5.071260070800781250e+01,-5.150373840332031250e+01,-5.391972351074218750e+01,-5.799995422363281250e+01,-5.882253265380859375e+01,-5.381141281127929688e+01,-5.031845092773437500e+01,-4.911767578125000000e+01,-5.009983825683593750e+01,-5.324544525146484375e+01,-5.758248138427734375e+01,-5.950759887695312500e+01,-5.995603179931640625e+01,-5.916811752319335938e+01,-5.626186370849609375e+01,-5.186433410644531250e+01,-4.717684555053710938e+01,-4.419362640380859375e+01,-4.316165542602539062e+01
-5.556269454956054688e+01,-4.775483322143554688e+01,-4.364579772949218750e+01,-4.244034576416015625e+01,-4.374530792236328125e+01,-4.772823333740234375e+01,-5.426968383789062500e+01,-5.961895751953125000e+01,-6.185546112060546875e+01,-5.731134033203125000e+01,-5.313309097290039062e+01,-5.157108306884765625e+01,-5.240280151367187500e+01,-5.576173400878906250e+01,-6.194938278198242188e+01,-6.475605010986328125e+01,-6.028045272827148438e+01,-5.713462066650390625e+01,-5.569478607177734375e+01,-5.577402114868164062e+01,-5.719821929931640625e+01,-5.948880004882812500e+01,-6.027951812744140625e+01,-5.810709381103515625e+01,-5.628471755981445312e+01,-5.590939331054687500e+01,-5.597482299804687500e+01,-4.765028381347656250e+01,-3.922119522094726562e+01,-3.427782440185546875e+01,-3.152913665771484375e+01,-2.939735031127929688e+01,-2.761486816406250000e+01,-2.709957313537597656e+01,-2.852142333984375000e+01,-3.213466644287109375e+01,-3.394870376586914062e+01,-3.117347145080566406e+01,-2.991736030578613281e+01,-3.088750457763671875e+01,-3.422604751586914062e+01,-4.007441711425781250e+01,-4.627297973632812500e+01,-4.403458023071289062e+01,-3.767083740234375000e+01,-3.246176147460937500e+01,-2.945816802978515625e+01,-2.871347427368164062e+01,-2.980494880676269531e+01,-3.075073623657226562e+01,-3.017385673522949219e+01,-3.054278945922851562e+01,-3.352061843872070312e+01,-4.034852600097656250e+01,-5.162802124023437500e+01,-5.671155548095703125e+01,-6.213798141479492188e+01,-6.595356750488281250e+01,-6.779228210449218750e+01,-6.954342651367187500e+01,-6.860879516601562500e+01,-6.589129638671875000e+01,-6.399368286132812500e+01,-6.356668090820312500e+01,-6.465768432617187500e+01,-6.666049194335937500e+01,-6.769732666015625000e+01,-6.770834350585937500e+01,-6.825909423828125000e+01,-6.932014465332031250e+01,-6.975008392333984375e+01,-6.852745819091796875e+01,-6.670314025878906250e+01,-6.557830810546875000e+01,-6.549298095703125000e+01,-6.545427703857421875e+01,-6.282617950439453125e+01,-6.012519073486328125e+01,-5.934669494628906250e+01,-6.068396759033203125e+01,-6.383132171630859375e+01,-6.652617645263671875e+01,-6.636856079101562500e+01,-6.556517791748046875e+01,-6.537608337402343750e+01,-6.545692443847656250e+01,-6.513847351074218750e+01,-6.451002502441406250e+01,-6.255966949462890625e+01,-5.971919631958007812e+01,-5.712404632568359375e+01,-5.400605010986328125e+01,-5.110129165649414062e+01,-4.951427078247070312e+01,-4.948696136474609375e+01,-5.068408966064453125e+01,-5.193149566650390625e+01,-5.245738220214843750e+01,-5.336732864379882812e+01,-5.523132324218750000e+01,-5.626288604736328125e+01,-5.588853836059570312e+01,-5.668629455566406250e+01,-5.971018218994140625e+01,-6.401866912841796875e+01,-6.471600341796875000e+01,-6.374355316162109375e+01,-6.309647369384765625e+01,-6.124786376953125000e+01,-5.882799911499023438e+01,-5.723119735717773438e+01,-5.429691314697265625e+01,-5.093510818481445312e+01,-4.920886993408203125e+01
-5.244703674316406250e+01,-4.340140533447265625e+01,-3.898392868041992188e+01,-3.754152297973632812e+01,-3.853451919555664062e+01,-4.191090774536132812e+01,-4.718433761596679688e+01,-5.234535598754882812e+01,-5.860456848144531250e+01,-6.296690750122070312e+01,-6.131757354736328125e+01,-6.078286743164062500e+01,-6.239406204223632812e+01,-6.530305480957031250e+01,-6.593222045898437500e+01,-5.856800842285156250e+01,-5.222855377197265625e+01,-4.885048675537109375e+01,-4.774253082275390625e+01,-4.861829376220703125e+01,-5.135890579223632812e+01,-5.565460968017578125e+01,-5.994438171386718750e+01,-6.104209899902343750e+01,-6.094792175292968750e+01,-6.108989334106445312e+01,-5.973378753662109375e+01,-4.636917114257812500e+01,-3.738668441772460938e+01,-3.276438140869140625e+01,-3.046427154541015625e+01,-2.909962272644042969e+01,-2.804229354858398438e+01,-2.785398864746093750e+01,-2.931586647033691406e+01,-3.276137542724609375e+01,-3.508887863159179688e+01,-3.279372024536132812e+01,-3.138467025756835938e+01,-3.197113037109375000e+01,-3.450585174560546875e+01,-3.874459838867187500e+01,-4.377786254882812500e+01,-4.508949279785156250e+01,-3.975930023193359375e+01,-3.445428085327148438e+01,-3.069664382934570312e+01,-2.910264396667480469e+01,-2.967862701416015625e+01,-3.219307327270507812e+01,-3.518919372558593750e+01,-3.666501617431640625e+01,-3.926399993896484375e+01,-4.539638137817382812e+01,-5.680025482177734375e+01,-6.469842529296875000e+01,-6.776596069335937500e+01,-6.862052917480468750e+01,-6.885704803466796875e+01,-6.873201751708984375e+01,-6.748973083496093750e+01,-6.562835693359375000e+01,-6.373169708251953125e+01,-6.237300872802734375e+01,-6.219080734252929688e+01,-6.332706451416015625e+01,-6.500926208496093750e+01,-6.585937500000000000e+01,-6.620414733886718750e+01,-6.685668945312500000e+01,-6.687342071533203125e+01,-6.541268157958984375e+01,-6.374414062500000000e+01,-6.299741744995117188e+01,-6.330961608886718750e+01,-6.217912292480468750e+01,-5.874979019165039062e+01,-5.667688751220703125e+01,-5.678269577026367188e+01,-5.892007827758789062e+01,-6.217108917236328125e+01,-6.452823638916015625e+01,-6.647984313964843750e+01,-6.698123168945312500e+01,-6.545507812500000000e+01,-6.418266296386718750e+01,-6.344107818603515625e+01,-6.254871368408203125e+01,-6.101218414306640625e+01,-5.914299011230468750e+01,-5.693337631225585938e+01,-5.452384185791015625e+01,-5.269539260864257812e+01,-5.179489135742187500e+01,-5.183235168457031250e+01,-5.230638504028320312e+01,-5.215800857543945312e+01,-5.166468429565429688e+01,-5.221874237060546875e+01,-5.479246520996093750e+01,-6.014005661010742188e+01,-6.810903167724609375e+01,-6.965832519531250000e+01,-6.819845581054687500e+01,-6.779487609863281250e+01,-6.811167907714843750e+01,-6.857305908203125000e+01,-6.872442626953125000e+01,-6.813565826416015625e+01,-6.468210601806640625e+01,-6.064095306396484375e+01,-5.702538681030273438e+01,-5.421730041503906250e+01,-5.230355834960937500e+01
-4.829183959960937500e+01,-3.927529907226562500e+01,-3.504391479492187500e+01,-3.380304336547851562e+01,-3.508445358276367188e+01,-3.895478439331054688e+01,-4.473804473876953125e+01,-4.880939865112304688e+01,-5.193394470214843750e+01,-5.024950408935546875e+01,-4.748084259033203125e+01,-4.709930419921875000e+01,-4.938944244384765625e+01,-5.516183853149414062e+01,-6.477380371093750000e+01,-5.565578460693359375e+01,-4.772785186767578125e+01,-4.373614501953125000e+01,-4.241806793212890625e+01,-4.339447021484375000e+01,-4.670824432373046875e+01,-5.246286010742187500e+01,-5.993666076660156250e+01,-6.491830444335937500e+01,-6.564704895019531250e+01,-6.522042846679687500e+01,-6.279487228393554688e+01,-4.798282623291015625e+01,-3.728065109252929688e+01,-3.169505500793457031e+01,-2.891102027893066406e+01,-2.789914131164550781e+01,-2.807951927185058594e+01,-2.922744750976562500e+01,-3.155902290344238281e+01,-3.459608078002929688e+01,-3.345512390136718750e+01,-3.058401489257812500e+01,-2.946078872680664062e+01,-3.013230514526367188e+01,-3.237786483764648438e+01,-3.588620758056640625e+01,-4.053164291381835938e+01,-4.323192596435546875e+01,-3.747724914550781250e+01,-3.251840591430664062e+01,-3.001810836791992188e+01,-2.976485633850097656e+01,-3.168849754333496094e+01,-3.536950302124023438e+01,-3.794013977050781250e+01,-3.863793182373046875e+01,-4.113296508789062500e+01,-4.703031158447265625e+01,-5.803302764892578125e+01,-6.770647430419921875e+01,-6.885183715820312500e+01,-6.895764160156250000e+01,-6.833174133300781250e+01,-6.671913146972656250e+01,-6.511553192138671875e+01,-6.411902618408203125e+01,-6.352414703369140625e+01,-6.305841827392578125e+01,-6.298920440673828125e+01,-6.373824310302734375e+01,-6.536557769775390625e+01,-6.720606994628906250e+01,-6.831697082519531250e+01,-6.834934997558593750e+01,-6.731311035156250000e+01,-6.576126861572265625e+01,-6.452276611328125000e+01,-6.411713409423828125e+01,-6.457772827148437500e+01,-6.321407318115234375e+01,-5.939927673339843750e+01,-5.698419952392578125e+01,-5.669925308227539062e+01,-5.841706466674804688e+01,-6.164691162109375000e+01,-6.482721710205078125e+01,-6.679254150390625000e+01,-6.672572326660156250e+01,-6.499581909179687500e+01,-6.366767120361328125e+01,-6.346562194824218750e+01,-6.398676681518554688e+01,-6.187106323242187500e+01,-5.782292175292968750e+01,-5.507743835449218750e+01,-5.349636840820312500e+01,-5.274788665771484375e+01,-5.282746505737304688e+01,-5.338072586059570312e+01,-5.347557830810546875e+01,-5.344608306884765625e+01,-5.471881103515625000e+01,-5.819576263427734375e+01,-6.429055786132812500e+01,-7.034364318847656250e+01,-7.251704406738281250e+01,-7.267878723144531250e+01,-7.348208618164062500e+01,-7.461978149414062500e+01,-7.475410461425781250e+01,-7.406470489501953125e+01,-7.247354125976562500e+01,-6.867079162597656250e+01,-6.528530120849609375e+01,-6.273368072509765625e+01,-5.785541152954101562e+01,-5.349338912963867188e+01,-5.048355102539062500e+01
-4.491535949707031250e+01,-3.535275268554687500e+01,-3.078199577331542969e+01,-2.929912185668945312e+01,-3.041771316528320312e+01,-3.441802978515625000e+01,-4.221427154541015625e+01,-4.988508224487304688e+01,-5.157720184326171875e+01,-4.957758331298828125e+01,-4.721200942993164062e+01,-4.692584609985351562e+01,-4.922502899169921875e+01,-5.502321243286132812e+01,-6.598950195312500000e+01,-6.068560028076171875e+01,-5.116200256347656250e+01,-4.612799453735351562e+01,-4.407444000244140625e+01,-4.444846343994140625e+01,-4.725508880615234375e+01,-5.277201843261718750e+01,-5.991806793212890625e+01,-6.394506454467773438e+01,-6.557595825195312500e+01,-6.579048156738281250e+01,-6.360358810424804688e+01,-4.780166244506835938e+01,-3.813909149169921875e+01,-3.305952453613281250e+01,-3.014949607849121094e+01,-2.831174087524414062e+01,-2.722899436950683594e+01,-2.718473815917968750e+01,-2.862263679504394531e+01,-3.139935684204101562e+01,-3.121742248535156250e+01,-2.739562988281250000e+01,-2.470113372802734375e+01,-2.381445503234863281e+01,-2.476891326904296875e+01,-2.776084327697753906e+01,-3.327936553955078125e+01,-3.949452209472656250e+01,-3.480330276489257812e+01,-3.016686630249023438e+01,-2.809176254272460938e+01,-2.829028701782226562e+01,-3.073992729187011719e+01,-3.526402282714843750e+01,-3.921154785156250000e+01,-4.053003692626953125e+01,-4.318701934814453125e+01,-4.917966842651367188e+01,-5.991032409667968750e+01,-6.928569793701171875e+01,-6.938232421875000000e+01,-6.799232482910156250e+01,-6.693662261962890625e+01,-6.633450317382812500e+01,-6.612080383300781250e+01,-6.632830047607421875e+01,-6.646200561523437500e+01,-6.572274017333984375e+01,-6.487986755371093750e+01,-6.482268524169921875e+01,-6.544564819335937500e+01,-6.626079559326171875e+01,-6.729899597167968750e+01,-6.873190307617187500e+01,-6.941636657714843750e+01,-6.802850341796875000e+01,-6.637528991699218750e+01,-6.588372802734375000e+01,-6.644033050537109375e+01,-6.368336486816406250e+01,-5.836789703369140625e+01,-5.544568634033203125e+01,-5.501913070678710938e+01,-5.699139022827148438e+01,-6.146648025512695312e+01,-6.692408752441406250e+01,-6.864462280273437500e+01,-6.702067565917968750e+01,-6.457888793945312500e+01,-6.297653961181640625e+01,-6.268120956420898438e+01,-6.348040390014648438e+01,-6.344437408447265625e+01,-6.127537155151367188e+01,-5.904051589965820312e+01,-5.614701080322265625e+01,-5.238710021972656250e+01,-4.947609710693359375e+01,-4.831512451171875000e+01,-4.899103546142578125e+01,-5.143189239501953125e+01,-5.528711700439453125e+01,-5.961511993408203125e+01,-6.442006683349609375e+01,-6.816012573242187500e+01,-6.962741088867187500e+01,-7.131686401367187500e+01,-7.387618255615234375e+01,-7.695786285400390625e+01,-7.788827514648437500e+01,-7.605223846435546875e+01,-7.373092651367187500e+01,-7.073277282714843750e+01,-6.784646606445312500e+01,-6.533218383789062500e+01,-6.356433868408203125e+01,-6.201979064941406250e+01,-5.352409744262695312e+01
-4.367080688476562500e+01,-3.340756225585937500e+01,-2.851901245117187500e+01,-2.682535934448242188e+01,-2.777059936523437500e+01,-3.164134407043457031e+01,-3.988499450683593750e+01,-5.338497924804687500e+01,-5.780728912353515625e+01,-5.611645507812500000e+01,-5.367697906494140625e+01,-5.355479431152343750e+01,-5.607587814331054688e+01,-6.186280822753906250e+01,-6.762667083740234375e+01,-5.854605484008789062e+01,-4.932646179199218750e+01,-4.478622436523437500e+01,-4.332530212402343750e+01,-4.448834991455078125e+01,-4.860808563232421875e+01,-5.682360076904296875e+01,-6.417475891113281250e+01,-6.523565673828125000e+01,-6.627957153320312500e+01,-6.731785583496093750e+01,-6.402943420410156250e+01,-4.892053985595703125e+01,-3.965213775634765625e+01,-3.424955749511718750e+01,-3.036288070678710938e+01,-2.743279266357421875e+01,-2.572113037109375000e+01,-2.559022903442382812e+01,-2.731205749511718750e+01,-3.102774238586425781e+01,-3.436485290527343750e+01,-3.184947967529296875e+01,-2.919984054565429688e+01,-2.848555374145507812e+01,-2.980168533325195312e+01,-3.327568054199218750e+01,-3.836801528930664062e+01,-3.971659851074218750e+01,-3.483094024658203125e+01,-3.051579475402832031e+01,-2.831719970703125000e+01,-2.820783042907714844e+01,-3.022031021118164062e+01,-3.452853012084960938e+01,-4.057676696777343750e+01,-4.465999984741210938e+01,-4.767829895019531250e+01,-5.362948226928710938e+01,-6.347446060180664062e+01,-7.061242675781250000e+01,-6.975302124023437500e+01,-6.908561706542968750e+01,-6.928443908691406250e+01,-6.937648010253906250e+01,-6.833219146728515625e+01,-6.710334014892578125e+01,-6.633616638183593750e+01,-6.582482910156250000e+01,-6.569650268554687500e+01,-6.624552917480468750e+01,-6.683223724365234375e+01,-6.643934631347656250e+01,-6.591111755371093750e+01,-6.629750823974609375e+01,-6.753804016113281250e+01,-6.828469848632812500e+01,-6.721899414062500000e+01,-6.587313079833984375e+01,-6.562385559082031250e+01,-6.512910461425781250e+01,-6.213647460937500000e+01,-5.967049789428710938e+01,-5.912277221679687500e+01,-6.046208190917968750e+01,-6.323834991455078125e+01,-6.612985229492187500e+01,-6.701830291748046875e+01,-6.545942687988281250e+01,-6.388913726806640625e+01,-6.348826217651367188e+01,-6.437995910644531250e+01,-6.575245666503906250e+01,-6.518590545654296875e+01,-6.324713897705078125e+01,-6.147449493408203125e+01,-5.747981643676757812e+01,-5.264545440673828125e+01,-4.954898834228515625e+01,-4.856994247436523438e+01,-4.970846557617187500e+01,-5.315995788574218750e+01,-5.928680801391601562e+01,-6.624681854248046875e+01,-6.823693847656250000e+01,-6.828302001953125000e+01,-6.839428710937500000e+01,-6.934161376953125000e+01,-7.119364929199218750e+01,-7.302992248535156250e+01,-7.312292480468750000e+01,-7.239292907714843750e+01,-7.195113372802734375e+01,-7.123206329345703125e+01,-6.937736511230468750e+01,-6.588906097412109375e+01,-6.281050872802734375e+01,-6.072415161132812500e+01,-5.002798843383789062e+01
-4.816183471679687500e+01,-3.936242675781250000e+01,-3.525450897216796875e+01,-3.413546752929687500e+01,-3.562084197998046875e+01,-4.009445953369140625e+01,-4.861058807373046875e+01,-5.786273193359375000e+01,-6.114994812011718750e+01,-6.030841445922851562e+01,-5.873654174804687500e+01,-5.871767425537109375e+01,-6.068282318115234375e+01,-6.423994445800781250e+01,-6.689349365234375000e+01,-6.175432968139648438e+01,-5.459218597412109375e+01,-5.083207321166992188e+01,-4.977607345581054688e+01,-5.112960433959960938e+01,-5.504089355468750000e+01,-6.127976989746093750e+01,-6.593635559082031250e+01,-6.700706481933593750e+01,-6.736558532714843750e+01,-6.797018432617187500e+01,-6.361295700073242188e+01,-4.582304382324218750e+01,-3.639163208007812500e+01,-3.103587722778320312e+01,-2.737348556518554688e+01,-2.419203567504882812e+01,-2.181666183471679688e+01,-2.104192352294921875e+01,-2.227427673339843750e+01,-2.572476959228515625e+01,-2.819197654724121094e+01,-2.510581970214843750e+01,-2.303854560852050781e+01,-2.316339302062988281e+01,-2.555720710754394531e+01,-3.061765670776367188e+01,-3.806016540527343750e+01,-3.819659423828125000e+01,-3.300464248657226562e+01,-2.894196510314941406e+01,-2.656690406799316406e+01,-2.598525810241699219e+01,-2.731088638305664062e+01,-3.079115676879882812e+01,-3.660478591918945312e+01,-4.187623214721679688e+01,-4.543796920776367188e+01,-5.261988830566406250e+01,-6.448541259765625000e+01,-6.969847106933593750e+01,-7.031993103027343750e+01,-7.046475219726562500e+01,-7.004553985595703125e+01,-6.916667938232421875e+01,-6.798908233642578125e+01,-6.708799743652343750e+01,-6.663879394531250000e+01,-6.637831115722656250e+01,-6.644400787353515625e+01,-6.716966247558593750e+01,-6.821420288085937500e+01,-6.859753417968750000e+01,-6.848174285888671875e+01,-6.859715270996093750e+01,-6.894126892089843750e+01,-6.921983337402343750e+01,-6.806243133544921875e+01,-6.565997314453125000e+01,-6.425811767578125000e+01,-6.375948715209960938e+01,-6.216035842895507812e+01,-5.995254135131835938e+01,-5.874007415771484375e+01,-5.897130584716796875e+01,-6.060260772705078125e+01,-6.345889282226562500e+01,-6.649162292480468750e+01,-6.709136962890625000e+01,-6.643495178222656250e+01,-6.625576782226562500e+01,-6.687539672851562500e+01,-6.719821166992187500e+01,-6.331031799316406250e+01,-5.926978683471679688e+01,-5.698173522949218750e+01,-5.438950347900390625e+01,-5.110346221923828125e+01,-4.876206207275390625e+01,-4.816253662109375000e+01,-4.942694091796875000e+01,-5.249183654785156250e+01,-5.676331329345703125e+01,-6.055903244018554688e+01,-6.459906768798828125e+01,-7.006417083740234375e+01,-7.497532653808593750e+01,-7.494055175781250000e+01,-7.285396575927734375e+01,-7.175020599365234375e+01,-7.236514282226562500e+01,-7.401093292236328125e+01,-7.372402191162109375e+01,-7.009030151367187500e+01,-6.603923034667968750e+01,-6.338596725463867188e+01,-6.260607910156250000e+01,-6.228884887695312500e+01,-5.227225494384765625e+01
-4.958518981933593750e+01,-4.082223510742187500e+01,-3.650686264038085938e+01,-3.515701293945312500e+01,-3.634657287597656250e+01,-4.034228515625000000e+01,-4.801841354370117188e+01,-5.809986877441406250e+01,-6.293597412109375000e+01,-6.380070114135742188e+01,-6.381346511840820312e+01,-6.483085632324218750e+01,-6.684547424316406250e+01,-6.819905853271484375e+01,-6.783438873291015625e+01,-6.631134796142578125e+01,-6.309234619140625000e+01,-5.982426834106445312e+01,-5.816791534423828125e+01,-5.841518402099609375e+01,-6.053230285644531250e+01,-6.399443435668945312e+01,-6.671961975097656250e+01,-6.764167022705078125e+01,-6.785440063476562500e+01,-6.756960296630859375e+01,-6.511660003662109375e+01,-5.239070129394531250e+01,-4.206520080566406250e+01,-3.540769958496093750e+01,-3.010545349121093750e+01,-2.576424217224121094e+01,-2.341714096069335938e+01,-2.318804740905761719e+01,-2.513325691223144531e+01,-2.912315750122070312e+01,-3.066641807556152344e+01,-2.750971221923828125e+01,-2.531290054321289062e+01,-2.496941375732421875e+01,-2.649670982360839844e+01,-3.000145149230957031e+01,-3.542506408691406250e+01,-3.770818328857421875e+01,-3.351866912841796875e+01,-2.971517944335937500e+01,-2.717823982238769531e+01,-2.632532119750976562e+01,-2.742571449279785156e+01,-3.086269378662109375e+01,-3.718180084228515625e+01,-4.326223373413085938e+01,-4.676856994628906250e+01,-5.388610839843750000e+01,-6.644572448730468750e+01,-7.106757354736328125e+01,-7.066047668457031250e+01,-7.003144836425781250e+01,-6.939765930175781250e+01,-6.897804260253906250e+01,-6.874508666992187500e+01,-6.863777160644531250e+01,-6.821163940429687500e+01,-6.705018615722656250e+01,-6.611582946777343750e+01,-6.623327636718750000e+01,-6.723341369628906250e+01,-6.826168823242187500e+01,-6.891510009765625000e+01,-6.921072387695312500e+01,-6.878742218017578125e+01,-6.788651275634765625e+01,-6.685020446777343750e+01,-6.623013305664062500e+01,-6.659725952148437500e+01,-6.787478637695312500e+01,-6.836851501464843750e+01,-6.587510681152343750e+01,-6.298431396484375000e+01,-6.164693450927734375e+01,-6.204727935791015625e+01,-6.386536407470703125e+01,-6.566468811035156250e+01,-6.549328613281250000e+01,-6.446433258056640625e+01,-6.411000823974609375e+01,-6.485796356201171875e+01,-6.600048828125000000e+01,-6.498208618164062500e+01,-6.181349945068359375e+01,-5.912809371948242188e+01,-5.679717254638671875e+01,-5.355924224853515625e+01,-5.062337493896484375e+01,-4.943123626708984375e+01,-5.035638046264648438e+01,-5.369665527343750000e+01,-5.983834838867187500e+01,-6.638182067871093750e+01,-6.964797210693359375e+01,-7.153565979003906250e+01,-7.274076843261718750e+01,-7.362419128417968750e+01,-7.220808410644531250e+01,-7.071419525146484375e+01,-7.087733459472656250e+01,-7.245063018798828125e+01,-7.374480438232421875e+01,-7.335661315917968750e+01,-7.120097351074218750e+01,-6.770369720458984375e+01,-6.546285247802734375e+01,-6.353008270263671875e+01,-4.867045593261718750e+01
-4.861110305786132812e+01,-3.903445816040039062e+01,-3.435342407226562500e+01,-3.282184982299804688e+01,-3.392375183105468750e+01,-3.796226882934570312e+01,-4.613175964355468750e+01,-5.588053131103515625e+01,-6.150139236450195312e+01,-6.727716827392578125e+01,-7.133438110351562500e+01,-7.161577606201171875e+01,-6.912112426757812500e+01,-6.707474517822265625e+01,-6.580833435058593750e+01,-6.489165496826171875e+01,-6.319940185546875000e+01,-6.093095779418945312e+01,-5.944960784912109375e+01,-5.930768203735351562e+01,-6.055200576782226562e+01,-6.295539093017578125e+01,-6.586283111572265625e+01,-6.796258544921875000e+01,-6.837911987304687500e+01,-6.750163269042968750e+01,-6.460712432861328125e+01,-4.843852233886718750e+01,-3.908985900878906250e+01,-3.412737655639648438e+01,-3.064713287353515625e+01,-2.655869483947753906e+01,-2.358547973632812500e+01,-2.272283554077148438e+01,-2.419578933715820312e+01,-2.835683822631835938e+01,-3.202667236328125000e+01,-2.840039443969726562e+01,-2.583493423461914062e+01,-2.542815399169921875e+01,-2.708943176269531250e+01,-3.092085456848144531e+01,-3.677863311767578125e+01,-3.822192382812500000e+01,-3.384666824340820312e+01,-3.090149879455566406e+01,-2.963727951049804688e+01,-3.000297927856445312e+01,-3.211120605468750000e+01,-3.627298355102539062e+01,-4.256261825561523438e+01,-4.716571044921875000e+01,-5.022210693359375000e+01,-5.657268524169921875e+01,-6.778273773193359375e+01,-7.108269500732421875e+01,-7.025664520263671875e+01,-6.968287658691406250e+01,-6.940373229980468750e+01,-6.913175964355468750e+01,-6.875535583496093750e+01,-6.861169433593750000e+01,-6.826972198486328125e+01,-6.704707336425781250e+01,-6.590152740478515625e+01,-6.582098388671875000e+01,-6.698065185546875000e+01,-6.903347778320312500e+01,-7.085612487792968750e+01,-7.086225128173828125e+01,-6.949114227294921875e+01,-6.775238037109375000e+01,-6.628152465820312500e+01,-6.562161254882812500e+01,-6.583798980712890625e+01,-6.619430541992187500e+01,-6.542480468750000000e+01,-6.434833526611328125e+01,-6.428984069824218750e+01,-6.501847076416015625e+01,-6.515277099609375000e+01,-6.476501464843750000e+01,-6.488265991210937500e+01,-6.503529357910156250e+01,-6.462593078613281250e+01,-6.440314483642578125e+01,-6.489356994628906250e+01,-6.450126647949218750e+01,-6.130490112304687500e+01,-5.871780014038085938e+01,-5.783470916748046875e+01,-5.753201293945312500e+01,-5.535530471801757812e+01,-5.244031524658203125e+01,-5.104542541503906250e+01,-5.166949462890625000e+01,-5.457405853271484375e+01,-6.023655700683593750e+01,-6.793652343750000000e+01,-7.297258758544921875e+01,-7.551755523681640625e+01,-7.371578979492187500e+01,-7.113545989990234375e+01,-6.959825897216796875e+01,-6.917167663574218750e+01,-6.975050354003906250e+01,-7.086183929443359375e+01,-7.169508361816406250e+01,-7.192550659179687500e+01,-7.147939300537109375e+01,-7.088801574707031250e+01,-7.132498168945312500e+01,-6.876995849609375000e+01,-5.232855224609375000e+01
-4.883148193359375000e+01,-3.962556076049804688e+01,-3.508037185668945312e+01,-3.365732574462890625e+01,-3.485778808593750000e+01,-3.898382568359375000e+01,-4.701588058471679688e+01,-5.592732238769531250e+01,-6.150335693359375000e+01,-6.715209960937500000e+01,-7.292828369140625000e+01,-7.368965148925781250e+01,-6.880017852783203125e+01,-6.574971008300781250e+01,-6.436995697021484375e+01,-6.411223602294921875e+01,-6.338122558593750000e+01,-6.080382919311523438e+01,-5.871859359741210938e+01,-5.837533950805664062e+01,-5.991031646728515625e+01,-6.289996337890625000e+01,-6.566883850097656250e+01,-6.686705017089843750e+01,-6.655577087402343750e+01,-6.573529052734375000e+01,-6.394618988037109375e+01,-4.792024230957031250e+01,-3.891564559936523438e+01,-3.412291336059570312e+01,-3.083266448974609375e+01,-2.630724716186523438e+01,-2.257545471191406250e+01,-2.103755760192871094e+01,-2.183237457275390625e+01,-2.512305831909179688e+01,-2.864686012268066406e+01,-2.649890899658203125e+01,-2.469346237182617188e+01,-2.492884826660156250e+01,-2.710358619689941406e+01,-3.115014839172363281e+01,-3.702222824096679688e+01,-4.085643005371093750e+01,-3.637059402465820312e+01,-3.281845092773437500e+01,-3.131798171997070312e+01,-3.172021102905273438e+01,-3.399864196777343750e+01,-3.817411422729492188e+01,-4.396808624267578125e+01,-4.897247695922851562e+01,-5.238123321533203125e+01,-5.854932022094726562e+01,-6.895702362060546875e+01,-7.086868286132812500e+01,-6.940464782714843750e+01,-6.873049163818359375e+01,-6.847277832031250000e+01,-6.804086303710937500e+01,-6.739242553710937500e+01,-6.692604064941406250e+01,-6.652999114990234375e+01,-6.582968139648437500e+01,-6.516741943359375000e+01,-6.514920043945312500e+01,-6.601827239990234375e+01,-6.757490539550781250e+01,-6.934007263183593750e+01,-7.043861389160156250e+01,-6.946160125732421875e+01,-6.688076782226562500e+01,-6.512578582763671875e+01,-6.489019012451171875e+01,-6.561995697021484375e+01,-6.303488922119140625e+01,-5.818324661254882812e+01,-5.552685928344726562e+01,-5.529314804077148438e+01,-5.738624572753906250e+01,-6.139880371093750000e+01,-6.428869628906250000e+01,-6.470853424072265625e+01,-6.464846038818359375e+01,-6.416975402832031250e+01,-6.420471191406250000e+01,-6.496872711181640625e+01,-6.408162689208984375e+01,-6.068257141113281250e+01,-5.830358505249023438e+01,-5.776821517944335938e+01,-5.787100219726562500e+01,-5.582046890258789062e+01,-5.271191024780273438e+01,-5.111838531494140625e+01,-5.158013153076171875e+01,-5.435963821411132812e+01,-6.010430526733398438e+01,-6.852438354492187500e+01,-7.215538024902343750e+01,-7.377136230468750000e+01,-7.354286193847656250e+01,-7.247958374023437500e+01,-7.150157928466796875e+01,-7.088910675048828125e+01,-7.063733673095703125e+01,-7.033251953125000000e+01,-7.004135131835937500e+01,-7.005778503417968750e+01,-7.012660980224609375e+01,-7.027628326416015625e+01,-7.122611236572265625e+01,-7.013168334960937500e+01,-5.305688858032226562e+01
-5.253482818603515625e+01,-4.321969223022460938e+01,-3.862265396118164062e+01,-3.711417388916015625e+01,-3.817183685302734375e+01,-4.200219726562500000e+01,-4.926770019531250000e+01,-5.822774124145507812e+01,-6.414469909667968750e+01,-6.815434265136718750e+01,-7.022768402099609375e+01,-6.887489318847656250e+01,-6.706188964843750000e+01,-6.620673370361328125e+01,-6.596267700195312500e+01,-6.553502655029296875e+01,-6.424537658691406250e+01,-6.244879150390625000e+01,-6.134634399414062500e+01,-6.151439285278320312e+01,-6.299233627319335938e+01,-6.515197753906250000e+01,-6.680782318115234375e+01,-6.767485046386718750e+01,-6.790618896484375000e+01,-6.790190124511718750e+01,-6.642673492431640625e+01,-5.217144775390625000e+01,-4.349680328369140625e+01,-3.812712860107421875e+01,-3.302331161499023438e+01,-2.693307495117187500e+01,-2.292406272888183594e+01,-2.140156745910644531e+01,-2.222599792480468750e+01,-2.524403572082519531e+01,-2.688691329956054688e+01,-2.433916091918945312e+01,-2.297171401977539062e+01,-2.364177703857421875e+01,-2.621486091613769531e+01,-3.029454421997070312e+01,-3.495686340332031250e+01,-3.766632461547851562e+01,-3.440830993652343750e+01,-3.081548118591308594e+01,-2.866827201843261719e+01,-2.814546966552734375e+01,-2.939898300170898438e+01,-3.274151229858398438e+01,-3.876564025878906250e+01,-4.626711273193359375e+01,-5.062038421630859375e+01,-5.734040069580078125e+01,-6.851478576660156250e+01,-7.011444854736328125e+01,-6.924775695800781250e+01,-6.928125000000000000e+01,-6.949713134765625000e+01,-6.945127868652343750e+01,-6.936257934570312500e+01,-6.920415496826171875e+01,-6.852393341064453125e+01,-6.771612548828125000e+01,-6.750978088378906250e+01,-6.772915649414062500e+01,-6.778192901611328125e+01,-6.786582183837890625e+01,-6.858802795410156250e+01,-6.962577819824218750e+01,-6.991595458984375000e+01,-6.890325927734375000e+01,-6.728244018554687500e+01,-6.612815856933593750e+01,-6.552368164062500000e+01,-6.322288894653320312e+01,-5.971083068847656250e+01,-5.754103469848632812e+01,-5.724849700927734375e+01,-5.876976776123046875e+01,-6.170627593994140625e+01,-6.476565551757812500e+01,-6.638095092773437500e+01,-6.593971252441406250e+01,-6.412819671630859375e+01,-6.278584289550781250e+01,-6.262306213378906250e+01,-6.202048873901367188e+01,-5.932215881347656250e+01,-5.695491027832031250e+01,-5.599182891845703125e+01,-5.562175750732421875e+01,-5.412357330322265625e+01,-5.207543563842773438e+01,-5.122592926025390625e+01,-5.223662567138671875e+01,-5.549633407592773438e+01,-6.169531250000000000e+01,-7.107098388671875000e+01,-7.508853912353515625e+01,-7.484320068359375000e+01,-7.401728820800781250e+01,-7.306115722656250000e+01,-7.250761413574218750e+01,-7.211560821533203125e+01,-7.122150421142578125e+01,-7.011392974853515625e+01,-6.953191375732421875e+01,-6.941711425781250000e+01,-6.880451202392578125e+01,-6.801612091064453125e+01,-6.831278228759765625e+01,-6.668511199951171875e+01,-4.783332061767578125e+01
-5.503314971923828125e+01,-4.933764266967773438e+01,-4.466825485229492188e+01,-4.312145233154296875e+01,-4.416968917846679688e+01,-4.802598571777343750e+01,-5.527493286132812500e+01,-6.251502227783203125e+01,-6.638476562500000000e+01,-7.008636474609375000e+01,-7.249512481689453125e+01,-7.012337493896484375e+01,-6.801390838623046875e+01,-6.737045288085937500e+01,-6.712521362304687500e+01,-6.637657165527343750e+01,-6.573553466796875000e+01,-6.581484985351562500e+01,-6.603759765625000000e+01,-6.556317901611328125e+01,-6.498594665527343750e+01,-6.518409729003906250e+01,-6.601592254638671875e+01,-6.671064758300781250e+01,-6.728195953369140625e+01,-6.852432250976562500e+01,-7.000063323974609375e+01,-5.904104232788085938e+01,-4.948206710815429688e+01,-4.371371078491210938e+01,-3.974130630493164062e+01,-3.515341949462890625e+01,-3.094263458251953125e+01,-2.874592781066894531e+01,-2.876604080200195312e+01,-3.036466217041015625e+01,-2.993838882446289062e+01,-2.710413742065429688e+01,-2.533969879150390625e+01,-2.522485542297363281e+01,-2.674993133544921875e+01,-3.003954696655273438e+01,-3.522972106933593750e+01,-3.690042877197265625e+01,-3.109481620788574219e+01,-2.729370689392089844e+01,-2.579497146606445312e+01,-2.626876068115234375e+01,-2.861679840087890625e+01,-3.284399795532226562e+01,-3.921377563476562500e+01,-4.739518356323242188e+01,-5.262306213378906250e+01,-5.902613449096679688e+01,-6.754209136962890625e+01,-6.904491424560546875e+01,-6.845492553710937500e+01,-6.833298492431640625e+01,-6.769932556152343750e+01,-6.670690155029296875e+01,-6.650209045410156250e+01,-6.760253906250000000e+01,-6.934925842285156250e+01,-6.974087524414062500e+01,-6.919869995117187500e+01,-6.929946136474609375e+01,-6.989788818359375000e+01,-6.956386566162109375e+01,-6.851344299316406250e+01,-6.810897827148437500e+01,-6.857778167724609375e+01,-6.917880249023437500e+01,-6.817724609375000000e+01,-6.595396423339843750e+01,-6.406794738769531250e+01,-6.059115600585937500e+01,-5.653434753417968750e+01,-5.429201126098632812e+01,-5.412518310546875000e+01,-5.587739944458007812e+01,-5.906365966796875000e+01,-6.244387054443359375e+01,-6.532641601562500000e+01,-6.616806030273437500e+01,-6.440284729003906250e+01,-6.284024047851562500e+01,-6.244748687744140625e+01,-6.190004348754882812e+01,-5.950360870361328125e+01,-5.699889373779296875e+01,-5.575651550292968750e+01,-5.560187149047851562e+01,-5.499152374267578125e+01,-5.361702346801757812e+01,-5.319521713256835938e+01,-5.472378158569335938e+01,-5.878251647949218750e+01,-6.591897583007812500e+01,-7.388767242431640625e+01,-7.637876129150390625e+01,-7.575317382812500000e+01,-7.515304565429687500e+01,-7.443149566650390625e+01,-7.354607391357421875e+01,-7.275178527832031250e+01,-7.183872985839843750e+01,-7.059906005859375000e+01,-6.933736419677734375e+01,-6.836746215820312500e+01,-6.787088775634765625e+01,-6.820062255859375000e+01,-6.972200775146484375e+01,-6.632987976074218750e+01,-4.746493148803710938e+01
-5.840548324584960938e+01,-5.161245727539062500e+01,-4.575707244873046875e+01,-4.342569351196289062e+01,-4.378970336914062500e+01,-4.693357849121093750e+01,-5.380948638916015625e+01,-6.397058868408203125e+01,-6.798151397705078125e+01,-7.037481689453125000e+01,-7.199923706054687500e+01,-7.124750518798828125e+01,-6.979209899902343750e+01,-6.883723449707031250e+01,-6.858164978027343750e+01,-6.800540161132812500e+01,-6.591957855224609375e+01,-6.331754302978515625e+01,-6.181662368774414062e+01,-6.199971389770507812e+01,-6.399316787719726562e+01,-6.738335418701171875e+01,-6.916493225097656250e+01,-6.828527832031250000e+01,-6.762933349609375000e+01,-6.782708740234375000e+01,-6.809738159179687500e+01,-6.134553146362304688e+01,-5.384757614135742188e+01,-4.903157424926757812e+01,-4.382188796997070312e+01,-3.974745941162109375e+01,-3.745164489746093750e+01,-3.676619720458984375e+01,-3.757414245605468750e+01,-3.857150268554687500e+01,-3.377706527709960938e+01,-2.759338951110839844e+01,-2.432062149047851562e+01,-2.358838462829589844e+01,-2.523121261596679688e+01,-2.952703094482421875e+01,-3.669614410400390625e+01,-3.727844238281250000e+01,-3.137821578979492188e+01,-2.838808631896972656e+01,-2.778975296020507812e+01,-2.924577903747558594e+01,-3.255652618408203125e+01,-3.728743362426757812e+01,-4.369825744628906250e+01,-5.256811904907226562e+01,-5.938273620605468750e+01,-6.444665527343750000e+01,-6.762759399414062500e+01,-6.670833587646484375e+01,-6.652931976318359375e+01,-6.761582946777343750e+01,-6.793989562988281250e+01,-6.673403930664062500e+01,-6.617779541015625000e+01,-6.704424285888671875e+01,-6.844136047363281250e+01,-6.841145324707031250e+01,-6.780148315429687500e+01,-6.823937988281250000e+01,-6.951522064208984375e+01,-6.938046264648437500e+01,-6.807307434082031250e+01,-6.773828887939453125e+01,-6.855049896240234375e+01,-6.942091369628906250e+01,-6.918144226074218750e+01,-6.840902709960937500e+01,-6.701177978515625000e+01,-6.242229461669921875e+01,-5.780089569091796875e+01,-5.528950881958007812e+01,-5.488445281982421875e+01,-5.644303894042968750e+01,-5.975197982788085938e+01,-6.382309722900390625e+01,-6.662815856933593750e+01,-6.727375793457031250e+01,-6.656562805175781250e+01,-6.557113647460937500e+01,-6.487804412841796875e+01,-6.418150329589843750e+01,-6.279773712158203125e+01,-6.124991989135742188e+01,-6.049775314331054688e+01,-6.066675949096679688e+01,-6.074176788330078125e+01,-5.917327880859375000e+01,-5.753723907470703125e+01,-5.754811859130859375e+01,-5.982272338867187500e+01,-6.513507843017578125e+01,-7.403007507324218750e+01,-7.652427673339843750e+01,-7.640550994873046875e+01,-7.635330200195312500e+01,-7.598643493652343750e+01,-7.525061798095703125e+01,-7.415857696533203125e+01,-7.276467895507812500e+01,-7.159117126464843750e+01,-7.072476196289062500e+01,-7.015081787109375000e+01,-7.003063964843750000e+01,-7.050224304199218750e+01,-7.146194458007812500e+01,-6.656777954101562500e+01,-5.155404663085937500e+01
-5.857438659667968750e+01,-4.869646453857421875e+01,-4.290460205078125000e+01,-4.063308715820312500e+01,-4.105595779418945312e+01,-4.427795791625976562e+01,-5.134096145629882812e+01,-6.271305847167968750e+01,-6.727551269531250000e+01,-6.700136566162109375e+01,-6.730191040039062500e+01,-6.833206176757812500e+01,-6.890817260742187500e+01,-6.854126739501953125e+01,-6.756779479980468750e+01,-6.403931427001953125e+01,-6.064179229736328125e+01,-5.929844665527343750e+01,-6.009613037109375000e+01,-6.281818389892578125e+01,-6.589529418945312500e+01,-6.679864501953125000e+01,-6.695169067382812500e+01,-6.738179016113281250e+01,-6.811987304687500000e+01,-6.870678710937500000e+01,-6.841571044921875000e+01,-6.279476928710937500e+01,-5.661562728881835938e+01,-5.080342483520507812e+01,-4.298372268676757812e+01,-3.784304428100585938e+01,-3.509103775024414062e+01,-3.433316040039062500e+01,-3.544490814208984375e+01,-3.740300750732421875e+01,-3.367951202392578125e+01,-2.849401092529296875e+01,-2.579019546508789062e+01,-2.538179779052734375e+01,-2.715221786499023438e+01,-3.124116325378417969e+01,-3.749164962768554688e+01,-4.042413330078125000e+01,-3.619871139526367188e+01,-3.344985961914062500e+01,-3.299618530273437500e+01,-3.466515731811523438e+01,-3.827180099487304688e+01,-4.265710830688476562e+01,-4.652653503417968750e+01,-5.057912445068359375e+01,-5.411676025390625000e+01,-5.997510528564453125e+01,-6.882101440429687500e+01,-6.999393463134765625e+01,-6.869737243652343750e+01,-6.784098052978515625e+01,-6.743786621093750000e+01,-6.710919189453125000e+01,-6.680368041992187500e+01,-6.702613830566406250e+01,-6.761053466796875000e+01,-6.769053649902343750e+01,-6.767622375488281250e+01,-6.871090698242187500e+01,-7.084798431396484375e+01,-7.203984069824218750e+01,-7.140972900390625000e+01,-7.075505828857421875e+01,-7.029483032226562500e+01,-6.938883972167968750e+01,-6.792318725585937500e+01,-6.691403961181640625e+01,-6.693088531494140625e+01,-6.613407897949218750e+01,-6.215750885009765625e+01,-5.899721908569335938e+01,-5.794153594970703125e+01,-5.886748504638671875e+01,-6.144621276855468750e+01,-6.448818969726562500e+01,-6.618949890136718750e+01,-6.637219238281250000e+01,-6.616214752197265625e+01,-6.635077667236328125e+01,-6.667390441894531250e+01,-6.612289428710937500e+01,-6.487995910644531250e+01,-6.348915100097656250e+01,-6.198903274536132812e+01,-5.976011657714843750e+01,-5.629442214965820312e+01,-5.327610015869140625e+01,-5.199217605590820312e+01,-5.277272033691406250e+01,-5.592226409912109375e+01,-6.213979339599609375e+01,-7.157421875000000000e+01,-7.600016784667968750e+01,-7.573915100097656250e+01,-7.446441650390625000e+01,-7.345512390136718750e+01,-7.349651336669921875e+01,-7.428661346435546875e+01,-7.421708679199218750e+01,-7.236868286132812500e+01,-7.004748535156250000e+01,-6.875080871582031250e+01,-6.900227355957031250e+01,-7.055931854248046875e+01,-7.144258880615234375e+01,-6.759776306152343750e+01,-5.275938796997070312e+01
-5.731369018554687500e+01,-5.199457550048828125e+01,-4.622661590576171875e+01,-4.378925323486328125e+01,-4.393856048583984375e+01,-4.667597961425781250e+01,-5.262477874755859375e+01,-6.217463684082031250e+01,-6.819139862060546875e+01,-6.797392272949218750e+01,-6.760644531250000000e+01,-6.755482482910156250e+01,-6.752540588378906250e+01,-6.742446899414062500e+01,-6.680150604248046875e+01,-6.439189910888671875e+01,-6.159798812866210938e+01,-6.000837707519531250e+01,-6.005275726318359375e+01,-6.175194168090820312e+01,-6.479617309570312500e+01,-6.771962738037109375e+01,-6.859833526611328125e+01,-6.862419128417968750e+01,-6.883679199218750000e+01,-6.872187805175781250e+01,-6.695429229736328125e+01,-6.190890884399414062e+01,-5.663058090209960938e+01,-5.224432373046875000e+01,-4.358313751220703125e+01,-3.587783813476562500e+01,-3.171576118469238281e+01,-3.029914474487304688e+01,-3.129449081420898438e+01,-3.450499343872070312e+01,-3.475790405273437500e+01,-3.014754867553710938e+01,-2.721047019958496094e+01,-2.631970787048339844e+01,-2.732357406616210938e+01,-3.022134971618652344e+01,-3.497633361816406250e+01,-3.975675964355468750e+01,-3.730035018920898438e+01,-3.295875167846679688e+01,-3.069493675231933594e+01,-3.058268356323242188e+01,-3.264504623413085938e+01,-3.709186553955078125e+01,-4.385005950927734375e+01,-5.092968368530273438e+01,-5.532124328613281250e+01,-6.147365188598632812e+01,-6.951803588867187500e+01,-6.987134552001953125e+01,-6.857688903808593750e+01,-6.800496673583984375e+01,-6.805302429199218750e+01,-6.793292999267578125e+01,-6.740007019042968750e+01,-6.730114746093750000e+01,-6.806915283203125000e+01,-6.926667785644531250e+01,-6.998774719238281250e+01,-6.994029235839843750e+01,-6.946615600585937500e+01,-6.884707641601562500e+01,-6.873114013671875000e+01,-6.945149993896484375e+01,-6.983152770996093750e+01,-6.822619628906250000e+01,-6.651019287109375000e+01,-6.602162933349609375e+01,-6.643554687500000000e+01,-6.470680236816406250e+01,-6.059519958496093750e+01,-5.804450607299804688e+01,-5.757701110839843750e+01,-5.897590637207031250e+01,-6.172377777099609375e+01,-6.472047424316406250e+01,-6.735678100585937500e+01,-6.811068725585937500e+01,-6.726776123046875000e+01,-6.690632629394531250e+01,-6.697446441650390625e+01,-6.557855224609375000e+01,-6.257224655151367188e+01,-6.039330291748046875e+01,-5.945661163330078125e+01,-5.775569915771484375e+01,-5.503693389892578125e+01,-5.319387054443359375e+01,-5.296260070800781250e+01,-5.446946334838867188e+01,-5.784146881103515625e+01,-6.355754089355468750e+01,-7.171681213378906250e+01,-7.568499755859375000e+01,-7.562718200683593750e+01,-7.483089447021484375e+01,-7.426385498046875000e+01,-7.441931152343750000e+01,-7.493692779541015625e+01,-7.507424926757812500e+01,-7.422624206542968750e+01,-7.161279296875000000e+01,-6.896143341064453125e+01,-6.777656555175781250e+01,-6.793769073486328125e+01,-6.791740417480468750e+01,-6.514002990722656250e+01,-5.011964416503906250e+01
-5.953577804565429688e+01,-5.987687683105468750e+01,-5.313007354736328125e+01,-4.973697662353515625e+01,-4.907011032104492188e+01,-5.097343444824218750e+01,-5.594468688964843750e+01,-6.442817687988281250e+01,-6.884880828857421875e+01,-7.002256774902343750e+01,-7.065596008300781250e+01,-7.086933898925781250e+01,-7.109462738037109375e+01,-7.118107604980468750e+01,-7.032595825195312500e+01,-6.811161041259765625e+01,-6.549574279785156250e+01,-6.376305007934570312e+01,-6.340252304077148438e+01,-6.440956115722656250e+01,-6.646520996093750000e+01,-6.871598815917968750e+01,-6.956884002685546875e+01,-6.890057373046875000e+01,-6.854831695556640625e+01,-6.896632385253906250e+01,-6.783914947509765625e+01,-5.975571823120117188e+01,-5.170751190185546875e+01,-4.572084045410156250e+01,-4.150832366943359375e+01,-3.914424896240234375e+01,-3.799636459350585938e+01,-3.759417724609375000e+01,-3.803475189208984375e+01,-3.952864456176757812e+01,-4.105261611938476562e+01,-3.933853912353515625e+01,-3.576158142089843750e+01,-3.354702758789062500e+01,-3.329022216796875000e+01,-3.503704452514648438e+01,-3.827095031738281250e+01,-3.890317535400390625e+01,-3.537940979003906250e+01,-3.258224105834960938e+01,-3.145520591735839844e+01,-3.199351119995117188e+01,-3.418296432495117188e+01,-3.810167694091796875e+01,-4.408728027343750000e+01,-5.026705551147460938e+01,-5.405208587646484375e+01,-5.979835891723632812e+01,-6.903769683837890625e+01,-7.095551300048828125e+01,-7.029992675781250000e+01,-7.071481323242187500e+01,-7.153019714355468750e+01,-7.099867248535156250e+01,-6.912617492675781250e+01,-6.789099884033203125e+01,-6.751551818847656250e+01,-6.739878845214843750e+01,-6.735781860351562500e+01,-6.778054046630859375e+01,-6.865517425537109375e+01,-6.938529968261718750e+01,-7.005022430419921875e+01,-7.061514282226562500e+01,-7.040517425537109375e+01,-6.905212402343750000e+01,-6.758468627929687500e+01,-6.669613647460937500e+01,-6.640198516845703125e+01,-6.518077850341796875e+01,-6.221388244628906250e+01,-6.022150421142578125e+01,-6.017593765258789062e+01,-6.209970474243164062e+01,-6.533750152587890625e+01,-6.788988494873046875e+01,-6.965138244628906250e+01,-7.035278320312500000e+01,-6.882529449462890625e+01,-6.714224243164062500e+01,-6.646303558349609375e+01,-6.521569824218750000e+01,-6.239167404174804688e+01,-6.024284362792968750e+01,-5.901477813720703125e+01,-5.632093811035156250e+01,-5.307358169555664062e+01,-5.110440063476562500e+01,-5.088868713378906250e+01,-5.253977966308593750e+01,-5.629867935180664062e+01,-6.287527847290039062e+01,-7.139625549316406250e+01,-7.469250488281250000e+01,-7.489570617675781250e+01,-7.413993835449218750e+01,-7.342739868164062500e+01,-7.304139709472656250e+01,-7.273639678955078125e+01,-7.257252502441406250e+01,-7.273493957519531250e+01,-7.296145629882812500e+01,-7.248831176757812500e+01,-7.128031921386718750e+01,-6.981816864013671875e+01,-6.802825927734375000e+01,-6.562224578857421875e+01,-5.371447753906250000e+01
-6.348535919189453125e+01,-5.508412933349609375e+01,-4.838155364990234375e+01,-4.546994781494140625e+01,-4.532774353027343750e+01,-4.790302276611328125e+01,-5.402765655517578125e+01,-6.460667419433593750e+01,-6.811898803710937500e+01,-6.839012908935546875e+01,-6.886930847167968750e+01,-6.946942138671875000e+01,-6.967941284179687500e+01,-6.958460998535156250e+01,-6.955202484130859375e+01,-6.890327453613281250e+01,-6.642538452148437500e+01,-6.405532073974609375e+01,-6.318827819824218750e+01,-6.402451324462890625e+01,-6.624020385742187500e+01,-6.837348937988281250e+01,-6.894659423828125000e+01,-6.920883178710937500e+01,-7.035606384277343750e+01,-7.138201904296875000e+01,-6.943650054931640625e+01,-5.972395706176757812e+01,-4.991921234130859375e+01,-4.331284713745117188e+01,-3.687739181518554688e+01,-3.181818389892578125e+01,-2.908107376098632812e+01,-2.854626846313476562e+01,-3.017713546752929688e+01,-3.396628570556640625e+01,-3.512668609619140625e+01,-3.074633216857910156e+01,-2.823314666748046875e+01,-2.806286239624023438e+01,-3.004381942749023438e+01,-3.391098403930664062e+01,-3.797169494628906250e+01,-3.813533020019531250e+01,-3.369365310668945312e+01,-2.999598884582519531e+01,-2.829690551757812500e+01,-2.858416938781738281e+01,-3.091472625732421875e+01,-3.551636123657226562e+01,-4.270706176757812500e+01,-5.186116027832031250e+01,-5.710186004638671875e+01,-6.192555618286132812e+01,-6.902819061279296875e+01,-6.995542907714843750e+01,-6.861173248291015625e+01,-6.858427429199218750e+01,-6.945244598388671875e+01,-6.980967712402343750e+01,-6.906900787353515625e+01,-6.853919982910156250e+01,-6.842943572998046875e+01,-6.817337036132812500e+01,-6.788107299804687500e+01,-6.812488555908203125e+01,-6.894097137451171875e+01,-6.979824066162109375e+01,-7.036784362792968750e+01,-7.043360900878906250e+01,-6.974223327636718750e+01,-6.857292938232421875e+01,-6.776634979248046875e+01,-6.741783142089843750e+01,-6.700789642333984375e+01,-6.581564331054687500e+01,-6.381664276123046875e+01,-6.218330001831054688e+01,-6.175040435791015625e+01,-6.278572845458984375e+01,-6.509602355957031250e+01,-6.765002441406250000e+01,-6.857574462890625000e+01,-6.741220092773437500e+01,-6.558115386962890625e+01,-6.447523498535156250e+01,-6.457524871826171875e+01,-6.500826263427734375e+01,-6.403128051757812500e+01,-6.222684097290039062e+01,-6.039699172973632812e+01,-5.759712982177734375e+01,-5.492588043212890625e+01,-5.357044219970703125e+01,-5.382318115234375000e+01,-5.571631622314453125e+01,-5.923876190185546875e+01,-6.449894714355468750e+01,-7.098830413818359375e+01,-7.473448181152343750e+01,-7.471400451660156250e+01,-7.439366912841796875e+01,-7.403571319580078125e+01,-7.410593414306640625e+01,-7.472465515136718750e+01,-7.552266693115234375e+01,-7.584353637695312500e+01,-7.479728698730468750e+01,-7.241311645507812500e+01,-6.986190795898437500e+01,-6.827235412597656250e+01,-6.764892578125000000e+01,-6.615563201904296875e+01,-5.277689361572265625e+01
-5.483595657348632812e+01,-4.420957946777343750e+01,-3.877765655517578125e+01,-3.669979858398437500e+01,-3.727026367187500000e+01,-4.064718627929687500e+01,-4.798990249633789062e+01,-6.183648681640625000e+01,-6.953277587890625000e+01,-6.944609832763671875e+01,-6.936021423339843750e+01,-6.944499206542968750e+01,-6.942929077148437500e+01,-6.936657714843750000e+01,-6.937588500976562500e+01,-6.838651275634765625e+01,-6.641175842285156250e+01,-6.498723602294921875e+01,-6.469926452636718750e+01,-6.545973205566406250e+01,-6.691481018066406250e+01,-6.859944152832031250e+01,-6.989660644531250000e+01,-7.007580566406250000e+01,-6.965628051757812500e+01,-6.970440673828125000e+01,-6.964009094238281250e+01,-5.913378143310546875e+01,-4.922079849243164062e+01,-4.258261108398437500e+01,-3.679872894287109375e+01,-3.207320785522460938e+01,-2.932219314575195312e+01,-2.859838485717773438e+01,-2.989352989196777344e+01,-3.283657836914062500e+01,-3.218890380859375000e+01,-2.814584922790527344e+01,-2.607016181945800781e+01,-2.621134567260742188e+01,-2.841651916503906250e+01,-3.238979339599609375e+01,-3.653941345214843750e+01,-3.662137603759765625e+01,-3.332764053344726562e+01,-3.118687057495117188e+01,-3.060465240478515625e+01,-3.141643142700195312e+01,-3.360337066650390625e+01,-3.750507736206054688e+01,-4.395116424560546875e+01,-5.091595458984375000e+01,-5.493449783325195312e+01,-6.068125534057617188e+01,-6.856295776367187500e+01,-7.116899871826171875e+01,-7.162907409667968750e+01,-7.221325683593750000e+01,-7.203761291503906250e+01,-7.057481384277343750e+01,-6.896730804443359375e+01,-6.794428253173828125e+01,-6.732531738281250000e+01,-6.698572540283203125e+01,-6.730027770996093750e+01,-6.849937438964843750e+01,-7.012162017822265625e+01,-7.132664489746093750e+01,-7.185927581787109375e+01,-7.149091339111328125e+01,-7.023375701904296875e+01,-6.855541992187500000e+01,-6.691714477539062500e+01,-6.567787170410156250e+01,-6.517388153076171875e+01,-6.466574096679687500e+01,-6.288757324218750000e+01,-6.096665954589843750e+01,-6.033658218383789062e+01,-6.136085510253906250e+01,-6.384788513183593750e+01,-6.688023376464843750e+01,-6.849966430664062500e+01,-6.778484344482421875e+01,-6.642703247070312500e+01,-6.591325378417968750e+01,-6.632579040527343750e+01,-6.633932495117187500e+01,-6.494914245605468750e+01,-6.348542022705078125e+01,-6.215766143798828125e+01,-5.920191955566406250e+01,-5.430365753173828125e+01,-5.061111068725585938e+01,-4.918033599853515625e+01,-5.005961608886718750e+01,-5.356321334838867188e+01,-6.070561218261718750e+01,-7.130021667480468750e+01,-7.498509216308593750e+01,-7.520550537109375000e+01,-7.465890502929687500e+01,-7.360319519042968750e+01,-7.292903900146484375e+01,-7.287702941894531250e+01,-7.306552124023437500e+01,-7.303031921386718750e+01,-7.224880981445312500e+01,-7.093717956542968750e+01,-6.988276672363281250e+01,-6.959011840820312500e+01,-6.985389709472656250e+01,-6.883957672119140625e+01,-5.779246520996093750e+01
-5.622918701171875000e+01,-4.525077819824218750e+01,-3.990676116943359375e+01,-3.793453979492187500e+01,-3.863953781127929688e+01,-4.223006057739257812e+01,-5.001516723632812500e+01,-6.307435989379882812e+01,-6.834777069091796875e+01,-6.978179931640625000e+01,-7.014236450195312500e+01,-7.010181427001953125e+01,-6.981378173828125000e+01,-6.948451232910156250e+01,-6.907977294921875000e+01,-6.748693847656250000e+01,-6.471393585205078125e+01,-6.253012084960937500e+01,-6.181218719482421875e+01,-6.262641143798828125e+01,-6.465962219238281250e+01,-6.705867004394531250e+01,-6.899311828613281250e+01,-7.039958190917968750e+01,-7.087808990478515625e+01,-7.069287109375000000e+01,-6.746812438964843750e+01,-5.579924774169921875e+01,-4.638180541992187500e+01,-3.958692932128906250e+01,-3.511796188354492188e+01,-3.195055007934570312e+01,-2.978427505493164062e+01,-2.896760177612304688e+01,-2.984729957580566406e+01,-3.157574653625488281e+01,-2.944512367248535156e+01,-2.621013832092285156e+01,-2.488910675048828125e+01,-2.544573211669921875e+01,-2.752738952636718750e+01,-3.054862213134765625e+01,-3.360133743286132812e+01,-3.294068908691406250e+01,-2.903697204589843750e+01,-2.665749740600585938e+01,-2.612906837463378906e+01,-2.709592437744140625e+01,-2.923012733459472656e+01,-3.255331802368164062e+01,-3.830031967163085938e+01,-4.824391555786132812e+01,-5.490428161621093750e+01,-6.092787933349609375e+01,-6.734807586669921875e+01,-6.876361083984375000e+01,-7.009529113769531250e+01,-7.172410583496093750e+01,-7.229838562011718750e+01,-7.164978790283203125e+01,-7.106230926513671875e+01,-7.065493774414062500e+01,-6.965700531005859375e+01,-6.821527099609375000e+01,-6.756589508056640625e+01,-6.824147796630859375e+01,-6.979873657226562500e+01,-7.067831420898437500e+01,-7.041619873046875000e+01,-7.042335510253906250e+01,-7.071755981445312500e+01,-7.027281188964843750e+01,-6.916113281250000000e+01,-6.838827514648437500e+01,-6.826005554199218750e+01,-6.743997192382812500e+01,-6.492248535156250000e+01,-6.272112274169921875e+01,-6.191425323486328125e+01,-6.246945953369140625e+01,-6.391660690307617188e+01,-6.559344482421875000e+01,-6.694917297363281250e+01,-6.771556091308593750e+01,-6.793527984619140625e+01,-6.773073577880859375e+01,-6.740563964843750000e+01,-6.701583099365234375e+01,-6.569448852539062500e+01,-6.364798355102539062e+01,-6.186144638061523438e+01,-5.889278411865234375e+01,-5.408801269531250000e+01,-5.068402099609375000e+01,-4.956742858886718750e+01,-5.077479171752929688e+01,-5.463046264648437500e+01,-6.192537307739257812e+01,-7.064533996582031250e+01,-7.417691040039062500e+01,-7.358419799804687500e+01,-7.138601684570312500e+01,-7.012181091308593750e+01,-7.037947845458984375e+01,-7.158288574218750000e+01,-7.220264434814453125e+01,-7.166767883300781250e+01,-7.100933074951171875e+01,-7.049130249023437500e+01,-6.982231903076171875e+01,-6.941461181640625000e+01,-6.972247314453125000e+01,-6.827154541015625000e+01,-5.760953140258789062e+01
-6.136975860595703125e+01,-5.456130599975585938e+01,-4.889088058471679688e+01,-4.636371994018554688e+01,-4.637944030761718750e+01,-4.892856597900390625e+01,-5.455610656738281250e+01,-6.327273559570312500e+01,-6.827439880371093750e+01,-7.034718322753906250e+01,-7.186621093750000000e+01,-7.185758972167968750e+01,-7.072367095947265625e+01,-7.004574584960937500e+01,-6.965297698974609375e+01,-6.766827392578125000e+01,-6.318867111206054688e+01,-5.962962341308593750e+01,-5.825485229492187500e+01,-5.910413360595703125e+01,-6.226884460449218750e+01,-6.732202148437500000e+01,-7.049824523925781250e+01,-7.138282775878906250e+01,-7.125241851806640625e+01,-6.994708251953125000e+01,-6.667736816406250000e+01,-5.103617095947265625e+01,-4.066041946411132812e+01,-3.531747436523437500e+01,-3.240297698974609375e+01,-3.013510513305664062e+01,-2.812422943115234375e+01,-2.726851081848144531e+01,-2.825483131408691406e+01,-3.114191246032714844e+01,-3.194250488281250000e+01,-2.896967697143554688e+01,-2.705261230468750000e+01,-2.673906326293945312e+01,-2.789391326904296875e+01,-3.054566955566406250e+01,-3.470022583007812500e+01,-3.689527893066406250e+01,-3.275161743164062500e+01,-2.906710624694824219e+01,-2.733057975769042969e+01,-2.736787796020507812e+01,-2.908017730712890625e+01,-3.247452926635742188e+01,-3.794812011718750000e+01,-4.628015518188476562e+01,-5.184285736083984375e+01,-5.814645004272460938e+01,-6.399742126464843750e+01,-6.312826538085937500e+01,-6.324197387695312500e+01,-6.494807434082031250e+01,-6.793630981445312500e+01,-7.028312683105468750e+01,-7.090217590332031250e+01,-7.104782104492187500e+01,-6.986153411865234375e+01,-6.783860778808593750e+01,-6.690837097167968750e+01,-6.760177612304687500e+01,-6.951328277587890625e+01,-7.108927917480468750e+01,-7.132862854003906250e+01,-7.166464233398437500e+01,-7.233804321289062500e+01,-7.173764038085937500e+01,-7.019075775146484375e+01,-6.952919769287109375e+01,-6.998930358886718750e+01,-6.905381774902343750e+01,-6.540855407714843750e+01,-6.271233749389648438e+01,-6.192066574096679688e+01,-6.279316711425781250e+01,-6.463053894042968750e+01,-6.618256378173828125e+01,-6.697876739501953125e+01,-6.726696777343750000e+01,-6.725003051757812500e+01,-6.725630187988281250e+01,-6.703618621826171875e+01,-6.627061462402343750e+01,-6.419665527343750000e+01,-6.127702713012695312e+01,-5.926139068603515625e+01,-5.795199966430664062e+01,-5.448812484741210938e+01,-5.079854202270507812e+01,-4.924599456787109375e+01,-5.011239624023437500e+01,-5.377129745483398438e+01,-6.154122161865234375e+01,-7.400643157958984375e+01,-7.740745544433593750e+01,-7.663885498046875000e+01,-7.492475128173828125e+01,-7.446575927734375000e+01,-7.503906250000000000e+01,-7.427146911621093750e+01,-7.172309875488281250e+01,-6.943415069580078125e+01,-6.785285949707031250e+01,-6.721328735351562500e+01,-6.772921752929687500e+01,-6.952807617187500000e+01,-7.182441711425781250e+01,-6.940299987792968750e+01,-5.827375030517578125e+01
-5.827370071411132812e+01,-4.846186065673828125e+01,-4.281351089477539062e+01,-4.052587890625000000e+01,-4.087068939208984375e+01,-4.393445587158203125e+01,-5.065752029418945312e+01,-6.224538040161132812e+01,-6.784184265136718750e+01,-6.749684143066406250e+01,-6.790690612792968750e+01,-6.909902191162109375e+01,-6.979795837402343750e+01,-7.020046997070312500e+01,-7.076278686523437500e+01,-6.728211975097656250e+01,-6.192871856689453125e+01,-5.900240707397460938e+01,-5.851944732666015625e+01,-6.034423828125000000e+01,-6.440396118164062500e+01,-6.883773803710937500e+01,-7.034797668457031250e+01,-7.054862976074218750e+01,-6.883428955078125000e+01,-6.611193847656250000e+01,-6.381803131103515625e+01,-5.368983459472656250e+01,-4.371697616577148438e+01,-3.760251998901367188e+01,-3.411898803710937500e+01,-3.255054092407226562e+01,-3.196823883056640625e+01,-3.185080146789550781e+01,-3.259274673461914062e+01,-3.481954956054687500e+01,-3.734946060180664062e+01,-3.666414260864257812e+01,-3.555278396606445312e+01,-3.588826370239257812e+01,-3.751891326904296875e+01,-4.018598937988281250e+01,-4.296343994140625000e+01,-4.171149826049804688e+01,-3.636291503906250000e+01,-3.186942863464355469e+01,-2.935051345825195312e+01,-2.879963493347167969e+01,-3.023264312744140625e+01,-3.384989166259765625e+01,-4.001833343505859375e+01,-4.749971008300781250e+01,-5.167494201660156250e+01,-5.816817092895507812e+01,-6.494923400878906250e+01,-6.326836395263671875e+01,-6.270323944091796875e+01,-6.389215850830078125e+01,-6.609515380859375000e+01,-6.752175903320312500e+01,-6.788670349121093750e+01,-6.825081634521484375e+01,-6.866239166259765625e+01,-6.868959808349609375e+01,-6.847404479980468750e+01,-6.879551696777343750e+01,-6.989993286132812500e+01,-7.119882202148437500e+01,-7.210047912597656250e+01,-7.270872497558593750e+01,-7.214097595214843750e+01,-6.973869323730468750e+01,-6.778578948974609375e+01,-6.734101867675781250e+01,-6.807104492187500000e+01,-6.671779632568359375e+01,-6.296896362304687500e+01,-6.073347473144531250e+01,-6.058882904052734375e+01,-6.238887023925781250e+01,-6.552947998046875000e+01,-6.792411804199218750e+01,-6.815281677246093750e+01,-6.764709472656250000e+01,-6.796635437011718750e+01,-6.941688537597656250e+01,-7.088272094726562500e+01,-7.063058471679687500e+01,-6.839264678955078125e+01,-6.560707092285156250e+01,-6.333228302001953125e+01,-6.138344573974609375e+01,-5.831508636474609375e+01,-5.471408843994140625e+01,-5.277746582031250000e+01,-5.303273773193359375e+01,-5.576797485351562500e+01,-6.175157928466796875e+01,-7.087792968750000000e+01,-7.331083679199218750e+01,-7.173464202880859375e+01,-7.071653747558593750e+01,-7.066473388671875000e+01,-7.130909729003906250e+01,-7.219239807128906250e+01,-7.283568572998046875e+01,-7.271073150634765625e+01,-7.167333984375000000e+01,-7.045971679687500000e+01,-6.986695098876953125e+01,-7.021092224121093750e+01,-7.132879638671875000e+01,-6.942626190185546875e+01,-5.123311614990234375e+01
-5.942461395263671875e+01,-5.179788970947265625e+01,-4.708078765869140625e+01,-4.537777709960937500e+01,-4.607755279541015625e+01,-4.903795623779296875e+01,-5.379750823974609375e+01,-5.884119033813476562e+01,-6.489544677734375000e+01,-6.928565979003906250e+01,-6.959886169433593750e+01,-6.983465576171875000e+01,-7.001144409179687500e+01,-6.969005584716796875e+01,-6.867643737792968750e+01,-6.043138504028320312e+01,-5.310177612304687500e+01,-4.954263305664062500e+01,-4.877609634399414062e+01,-5.058221054077148438e+01,-5.541374206542968750e+01,-6.395330429077148438e+01,-6.956425476074218750e+01,-6.910304260253906250e+01,-6.734126281738281250e+01,-6.565057373046875000e+01,-6.380976867675781250e+01,-5.719064331054687500e+01,-4.959849166870117188e+01,-4.390233230590820312e+01,-3.806378173828125000e+01,-3.304672241210937500e+01,-3.010862350463867188e+01,-2.932240295410156250e+01,-3.067956161499023438e+01,-3.431031799316406250e+01,-3.892092514038085938e+01,-3.927194976806640625e+01,-3.877865982055664062e+01,-4.040648651123046875e+01,-4.424032974243164062e+01,-4.790741729736328125e+01,-4.744076156616210938e+01,-4.317094039916992188e+01,-3.786383438110351562e+01,-3.394868087768554688e+01,-3.164132690429687500e+01,-3.101136016845703125e+01,-3.218605422973632812e+01,-3.545524215698242188e+01,-4.138671875000000000e+01,-4.927665328979492188e+01,-5.413404846191406250e+01,-6.070898056030273438e+01,-6.694565582275390625e+01,-6.506570434570312500e+01,-6.420471191406250000e+01,-6.511590576171875000e+01,-6.742124938964843750e+01,-6.965170288085937500e+01,-7.051402282714843750e+01,-7.109536743164062500e+01,-7.188906860351562500e+01,-7.264967346191406250e+01,-7.330956268310546875e+01,-7.374987030029296875e+01,-7.339675903320312500e+01,-7.250546264648437500e+01,-7.187291717529296875e+01,-7.164033508300781250e+01,-7.119630432128906250e+01,-6.928231811523437500e+01,-6.647767639160156250e+01,-6.462033081054687500e+01,-6.433184814453125000e+01,-6.519589996337890625e+01,-6.478306579589843750e+01,-6.263921356201171875e+01,-6.141832733154296875e+01,-6.177149200439453125e+01,-6.324732971191406250e+01,-6.481417846679687500e+01,-6.569480895996093750e+01,-6.568389129638671875e+01,-6.517160797119140625e+01,-6.524270629882812500e+01,-6.634747314453125000e+01,-6.775727844238281250e+01,-6.708408355712890625e+01,-6.395917510986328125e+01,-6.107107543945312500e+01,-5.834911346435546875e+01,-5.481463623046875000e+01,-5.170884704589843750e+01,-5.038857650756835938e+01,-5.121022415161132812e+01,-5.453577423095703125e+01,-6.132925415039062500e+01,-7.164406585693359375e+01,-7.397258758544921875e+01,-7.293316650390625000e+01,-7.124063110351562500e+01,-7.022499084472656250e+01,-7.036135864257812500e+01,-7.143970489501953125e+01,-7.307674407958984375e+01,-7.474592590332031250e+01,-7.289330291748046875e+01,-6.839852905273437500e+01,-6.597811126708984375e+01,-6.584436035156250000e+01,-6.749726867675781250e+01,-6.606356811523437500e+01,-5.128865051269531250e+01
-6.014389038085937500e+01,-5.129225921630859375e+01,-4.637519454956054688e+01,-4.456272506713867188e+01,-4.525041961669921875e+01,-4.842991638183593750e+01,-5.402581787109375000e+01,-5.961711502075195312e+01,-6.401939392089843750e+01,-6.643038940429687500e+01,-6.761551666259765625e+01,-6.935754394531250000e+01,-7.008810424804687500e+01,-6.945207214355468750e+01,-6.821992492675781250e+01,-5.775543212890625000e+01,-5.055161285400390625e+01,-4.714731597900390625e+01,-4.646614074707031250e+01,-4.829139709472656250e+01,-5.300917816162109375e+01,-6.129304504394531250e+01,-6.991908264160156250e+01,-7.098226928710937500e+01,-6.965238952636718750e+01,-6.824612426757812500e+01,-6.673764038085937500e+01,-5.834930801391601562e+01,-5.117415237426757812e+01,-4.691769027709960938e+01,-4.123266601562500000e+01,-3.430132293701171875e+01,-3.010053825378417969e+01,-2.857297325134277344e+01,-2.946479034423828125e+01,-3.285652923583984375e+01,-3.668307876586914062e+01,-3.418679428100585938e+01,-3.137107086181640625e+01,-3.039334869384765625e+01,-3.125297164916992188e+01,-3.402165603637695312e+01,-3.849110031127929688e+01,-3.962475585937500000e+01,-3.402177810668945312e+01,-2.994011116027832031e+01,-2.815816879272460938e+01,-2.845460128784179688e+01,-3.081963920593261719e+01,-3.540216827392578125e+01,-4.256909942626953125e+01,-5.261864471435546875e+01,-5.770038223266601562e+01,-6.343764495849609375e+01,-7.046318054199218750e+01,-7.113249206542968750e+01,-6.888511657714843750e+01,-6.729128265380859375e+01,-6.692413330078125000e+01,-6.766758728027343750e+01,-6.912393188476562500e+01,-7.076320648193359375e+01,-7.164258575439453125e+01,-7.134339141845703125e+01,-7.117988586425781250e+01,-7.156941223144531250e+01,-7.198545837402343750e+01,-7.195292663574218750e+01,-7.216987609863281250e+01,-7.289358520507812500e+01,-7.283352661132812500e+01,-7.084028625488281250e+01,-6.799903869628906250e+01,-6.607482147216796875e+01,-6.560085296630859375e+01,-6.614878082275390625e+01,-6.557752227783203125e+01,-6.370738601684570312e+01,-6.285274124145507812e+01,-6.361751937866210938e+01,-6.559333801269531250e+01,-6.765275573730468750e+01,-6.883468627929687500e+01,-6.829502868652343750e+01,-6.702156066894531250e+01,-6.689476013183593750e+01,-6.808247375488281250e+01,-6.918186950683593750e+01,-6.802523040771484375e+01,-6.550909423828125000e+01,-6.252397155761718750e+01,-5.890669250488281250e+01,-5.573435974121093750e+01,-5.379539489746093750e+01,-5.341051864624023438e+01,-5.475450897216796875e+01,-5.809201049804687500e+01,-6.395012664794921875e+01,-7.182896423339843750e+01,-7.535519409179687500e+01,-7.527024841308593750e+01,-7.403917694091796875e+01,-7.300102233886718750e+01,-7.281002044677734375e+01,-7.322959136962890625e+01,-7.411182403564453125e+01,-7.543685913085937500e+01,-7.573025512695312500e+01,-7.398086547851562500e+01,-7.254006195068359375e+01,-7.216236877441406250e+01,-7.164787292480468750e+01,-6.778546905517578125e+01,-5.600220870971679688e+01
-5.824588012695312500e+01,-4.683048248291015625e+01,-4.139028930664062500e+01,-3.936568450927734375e+01,-4.001025390625000000e+01,-4.346736145019531250e+01,-5.064245986938476562e+01,-5.992061614990234375e+01,-6.511353302001953125e+01,-6.598270416259765625e+01,-6.543606567382812500e+01,-6.608946228027343750e+01,-6.767164611816406250e+01,-6.935443115234375000e+01,-6.952357482910156250e+01,-5.934452056884765625e+01,-5.213848114013671875e+01,-4.874324035644531250e+01,-4.806641006469726562e+01,-4.988233184814453125e+01,-5.453491592407226562e+01,-6.239743804931640625e+01,-6.996713256835937500e+01,-7.216683197021484375e+01,-7.300095367431640625e+01,-7.269945526123046875e+01,-7.078615570068359375e+01,-5.919780731201171875e+01,-5.038889312744140625e+01,-4.459319305419921875e+01,-4.028261184692382812e+01,-3.650267410278320312e+01,-3.387484741210937500e+01,-3.299272537231445312e+01,-3.409641265869140625e+01,-3.632734680175781250e+01,-3.313505172729492188e+01,-2.856498718261718750e+01,-2.619293785095214844e+01,-2.584875297546386719e+01,-2.736581230163574219e+01,-3.068190002441406250e+01,-3.533648681640625000e+01,-3.635557174682617188e+01,-3.153605651855468750e+01,-2.752505111694335938e+01,-2.549782180786132812e+01,-2.544690704345703125e+01,-2.744264984130859375e+01,-3.177048683166503906e+01,-3.879805374145507812e+01,-4.733477783203125000e+01,-5.219660186767578125e+01,-5.921024322509765625e+01,-6.833567047119140625e+01,-6.983418273925781250e+01,-6.902568054199218750e+01,-6.765838623046875000e+01,-6.691019439697265625e+01,-6.713962554931640625e+01,-6.818481445312500000e+01,-6.971882629394531250e+01,-7.109210205078125000e+01,-7.152357482910156250e+01,-7.153059387207031250e+01,-7.171978759765625000e+01,-7.177883911132812500e+01,-7.167075347900390625e+01,-7.208094787597656250e+01,-7.304618835449218750e+01,-7.304133605957031250e+01,-7.137059020996093750e+01,-6.972827148437500000e+01,-6.906755065917968750e+01,-6.954846191406250000e+01,-7.007260131835937500e+01,-6.796945953369140625e+01,-6.522290802001953125e+01,-6.408023834228515625e+01,-6.477442932128906250e+01,-6.689379882812500000e+01,-6.905639648437500000e+01,-6.980754089355468750e+01,-6.941885375976562500e+01,-6.871342468261718750e+01,-6.850021362304687500e+01,-6.871099090576171875e+01,-6.852980041503906250e+01,-6.751614379882812500e+01,-6.590582275390625000e+01,-6.331611633300781250e+01,-5.875701904296875000e+01,-5.434211730957031250e+01,-5.146498489379882812e+01,-5.043418884277343750e+01,-5.133486557006835938e+01,-5.434942626953125000e+01,-5.974830627441406250e+01,-6.600085449218750000e+01,-6.885822296142578125e+01,-6.964624786376953125e+01,-6.761728668212890625e+01,-6.599741363525390625e+01,-6.609411621093750000e+01,-6.789270019531250000e+01,-7.048351287841796875e+01,-7.158686828613281250e+01,-7.128724670410156250e+01,-7.079206085205078125e+01,-7.030588531494140625e+01,-7.015824890136718750e+01,-6.975321960449218750e+01,-6.662133789062500000e+01,-5.486684036254882812e+01
-5.390579605102539062e+01,-4.363695526123046875e+01,-3.892469406127929688e+01,-3.740175247192382812e+01,-3.851957702636718750e+01,-4.256723785400390625e+01,-5.062566375732421875e+01,-6.001392364501953125e+01,-6.277890014648437500e+01,-6.177826309204101562e+01,-6.191065216064453125e+01,-6.383316802978515625e+01,-6.679459381103515625e+01,-6.898767089843750000e+01,-6.921916198730468750e+01,-6.304190826416015625e+01,-5.665116882324218750e+01,-5.304010772705078125e+01,-5.181002807617187500e+01,-5.274079513549804688e+01,-5.591329956054687500e+01,-6.155214691162109375e+01,-6.881288909912109375e+01,-7.158918762207031250e+01,-7.120960998535156250e+01,-7.088470458984375000e+01,-6.917827606201171875e+01,-5.273115539550781250e+01,-4.289726638793945312e+01,-3.735565948486328125e+01,-3.362462997436523438e+01,-2.989487075805664062e+01,-2.696265792846679688e+01,-2.585533142089843750e+01,-2.690052032470703125e+01,-2.995755767822265625e+01,-2.766381454467773438e+01,-2.233731079101562500e+01,-1.970109558105468750e+01,-1.942986297607421875e+01,-2.133456039428710938e+01,-2.539449691772460938e+01,-3.098364257812500000e+01,-3.472015380859375000e+01,-3.182435035705566406e+01,-2.842034149169921875e+01,-2.668146896362304688e+01,-2.673524856567382812e+01,-2.867555236816406250e+01,-3.270808410644531250e+01,-3.909524536132812500e+01,-4.582504653930664062e+01,-4.998038864135742188e+01,-5.704761505126953125e+01,-6.755288696289062500e+01,-6.829789733886718750e+01,-6.582440185546875000e+01,-6.357420349121093750e+01,-6.273499298095703125e+01,-6.360084533691406250e+01,-6.625316619873046875e+01,-7.018225860595703125e+01,-7.240621948242187500e+01,-7.198849487304687500e+01,-7.172759246826171875e+01,-7.175135803222656250e+01,-7.144812011718750000e+01,-7.112166595458984375e+01,-7.162297058105468750e+01,-7.314872741699218750e+01,-7.410746765136718750e+01,-7.242694091796875000e+01,-7.032833862304687500e+01,-6.950785827636718750e+01,-6.991577911376953125e+01,-6.901313781738281250e+01,-6.609800720214843750e+01,-6.440707397460937500e+01,-6.478912353515625000e+01,-6.721752929687500000e+01,-7.055507659912109375e+01,-7.161483764648437500e+01,-7.129417419433593750e+01,-7.039413452148437500e+01,-6.844042205810546875e+01,-6.675863647460937500e+01,-6.634501647949218750e+01,-6.704454040527343750e+01,-6.737931823730468750e+01,-6.538571929931640625e+01,-6.190907287597656250e+01,-5.732923126220703125e+01,-5.342060089111328125e+01,-5.111344909667968750e+01,-5.060027313232421875e+01,-5.195865631103515625e+01,-5.527914810180664062e+01,-6.022539901733398438e+01,-6.409982299804687500e+01,-6.525947570800781250e+01,-6.359008026123046875e+01,-6.114101028442382812e+01,-6.042152404785156250e+01,-6.179373550415039062e+01,-6.533969116210937500e+01,-7.059710693359375000e+01,-7.391329193115234375e+01,-7.315953063964843750e+01,-7.033770751953125000e+01,-6.733153533935546875e+01,-6.555763244628906250e+01,-6.357059478759765625e+01,-5.964417648315429688e+01,-4.918539428710937500e+01
