-5.230601501464843750e+01,-5.198535156250000000e+01,-5.144029998779296875e+01,-5.075292205810546875e+01,-5.044429779052734375e+01,-5.055670166015625000e+01,-5.017523193359375000e+01,-4.924772644042968750e+01,-4.859832000732421875e+01,-4.775014495849609375e+01,-4.653593826293945312e+01,-4.598040771484375000e+01,-4.635930633544921875e+01,-4.710694885253906250e+01,-4.792754745483398438e+01,-4.893436050415039062e+01,-4.904103088378906250e+01,-4.813138961791992188e+01,-4.770222473144531250e+01,-4.776923751831054688e+01,-4.760422515869140625e+01,-4.746725463867187500e+01,-4.770267486572265625e+01,-4.742276000976562500e+01,-4.637408828735351562e+01,-4.554454421997070312e+01,-4.541634368896484375e+01,-4.564111328125000000e+01,-4.562060546875000000e+01,-4.527062225341796875e+01,-4.490340423583984375e+01,-4.471369934082031250e+01,-4.493754959106445312e+01,-4.593030548095703125e+01,-4.762063598632812500e+01,-4.839658355712890625e+01,-4.690389251708984375e+01,-4.519439697265625000e+01,-4.422340393066406250e+01,-4.400100326538085938e+01,-4.432003021240234375e+01,-4.451455688476562500e+01,-4.374639129638671875e+01,-4.280514907836914062e+01,-4.278377151489257812e+01,-4.357530212402343750e+01,-4.400183105468750000e+01,-4.344325256347656250e+01,-4.251880264282226562e+01,-4.189021301269531250e+01,-4.197062301635742188e+01,-4.277402496337890625e+01,-4.361716461181640625e+01,-4.344006347656250000e+01,-4.220279312133789062e+01,-4.093660736083984375e+01,-4.035002136230468750e+01,-4.064622116088867188e+01,-4.187797546386718750e+01,-4.398059844970703125e+01,-4.615435409545898438e+01,-4.605871582031250000e+01,-4.464740753173828125e+01,-4.382287979125976562e+01,-4.352590560913085938e+01,-4.300898361206054688e+01,-4.206566619873046875e+01,-3.851964569091796875e+01,-3.140225219726562500e+01,-2.685260009765625000e+01,-2.512781524658203125e+01,-2.591166496276855469e+01,-2.878901672363281250e+01,-2.937783813476562500e+01,-2.728577423095703125e+01,-2.686955833435058594e+01,-2.778212165832519531e+01,-2.850815773010253906e+01,-2.878805160522460938e+01,-2.997293663024902344e+01,-3.233104705810546875e+01,-3.600363922119140625e+01,-4.204280853271484375e+01,-4.880649566650390625e+01,-5.129817962646484375e+01,-5.213967895507812500e+01,-5.180499267578125000e+01,-4.992875671386718750e+01,-4.862265396118164062e+01,-4.896682739257812500e+01,-5.114221572875976562e+01,-5.463436889648437500e+01,-5.703741073608398438e+01,-5.598927307128906250e+01,-5.361362457275390625e+01,-5.216606903076171875e+01,-5.132982254028320312e+01,-5.021924591064453125e+01,-4.963438415527343750e+01,-5.065713500976562500e+01,-5.382830810546875000e+01,-5.871453857421875000e+01,-6.136454772949218750e+01,-6.132041168212890625e+01,-6.147220611572265625e+01,-6.202295684814453125e+01,-6.118013763427734375e+01,-5.943206787109375000e+01,-5.808551788330078125e+01,-5.682609558105468750e+01,-5.536389160156250000e+01,-5.405709075927734375e+01,-5.349937438964843750e+01,-5.378270721435546875e+01
-5.112517547607421875e+01,-5.063600158691406250e+01,-4.973400115966796875e+01,-4.941074371337890625e+01,-4.912652587890625000e+01,-4.722137451171875000e+01,-4.511511993408203125e+01,-4.440834808349609375e+01,-4.524384689331054688e+01,-4.657527160644531250e+01,-4.682453155517578125e+01,-4.683613586425781250e+01,-4.765821075439453125e+01,-4.888816833496093750e+01,-4.959119796752929688e+01,-4.950725173950195312e+01,-4.893399810791015625e+01,-4.853021240234375000e+01,-4.828628158569335938e+01,-4.756699371337890625e+01,-4.682371139526367188e+01,-4.676557540893554688e+01,-4.707416534423828125e+01,-4.696447753906250000e+01,-4.667541122436523438e+01,-4.690597534179687500e+01,-4.762271881103515625e+01,-4.774159240722656250e+01,-4.680965423583984375e+01,-4.577580261230468750e+01,-4.538505554199218750e+01,-4.589298248291015625e+01,-4.711341857910156250e+01,-4.828132629394531250e+01,-4.834674835205078125e+01,-4.683612823486328125e+01,-4.462830352783203125e+01,-4.342068481445312500e+01,-4.362651824951171875e+01,-4.476341247558593750e+01,-4.573477935791015625e+01,-4.603540802001953125e+01,-4.619192123413085938e+01,-4.641115570068359375e+01,-4.631977081298828125e+01,-4.517972564697265625e+01,-4.379920196533203125e+01,-4.307752227783203125e+01,-4.291337966918945312e+01,-4.274277496337890625e+01,-4.241857147216796875e+01,-4.235243988037109375e+01,-4.264273452758789062e+01,-4.291763305664062500e+01,-4.300837707519531250e+01,-4.343048095703125000e+01,-4.416725158691406250e+01,-4.428525543212890625e+01,-4.373598480224609375e+01,-4.335834121704101562e+01,-4.350473785400390625e+01,-4.387570190429687500e+01,-4.393603515625000000e+01,-4.351586914062500000e+01,-4.298247146606445312e+01,-4.162402343750000000e+01,-3.945191192626953125e+01,-3.391046905517578125e+01,-2.612043952941894531e+01,-2.200531005859375000e+01,-2.083099746704101562e+01,-2.229555130004882812e+01,-2.672850036621093750e+01,-3.199406814575195312e+01,-3.066614532470703125e+01,-2.876413345336914062e+01,-2.678690147399902344e+01,-2.560906410217285156e+01,-2.604249954223632812e+01,-2.837497520446777344e+01,-3.219352722167968750e+01,-3.653610229492187500e+01,-4.238817977905273438e+01,-4.778611755371093750e+01,-5.003629302978515625e+01,-5.158442687988281250e+01,-5.368287658691406250e+01,-5.422521209716796875e+01,-5.371973037719726562e+01,-5.406273651123046875e+01,-5.510763168334960938e+01,-5.606401062011718750e+01,-5.671459197998046875e+01,-5.669837951660156250e+01,-5.599398040771484375e+01,-5.534255981445312500e+01,-5.481743621826171875e+01,-5.438520050048828125e+01,-5.483330535888671875e+01,-5.680026245117187500e+01,-5.958552551269531250e+01,-5.964628601074218750e+01,-5.835147857666015625e+01,-5.842066192626953125e+01,-5.959671020507812500e+01,-6.024877929687500000e+01,-5.943686676025390625e+01,-5.862204742431640625e+01,-5.826379776000976562e+01,-5.768946075439453125e+01,-5.667819213867187500e+01,-5.562046813964843750e+01,-5.517647552490234375e+01,-5.575256347656250000e+01
-5.090070343017578125e+01,-5.087521362304687500e+01,-5.059337615966796875e+01,-5.034951019287109375e+01,-4.969168472290039062e+01,-4.729795074462890625e+01,-4.465610122680664062e+01,-4.351911926269531250e+01,-4.418060302734375000e+01,-4.621222686767578125e+01,-4.815359878540039062e+01,-4.899897384643554688e+01,-4.950366592407226562e+01,-4.987075042724609375e+01,-5.002730560302734375e+01,-4.949092864990234375e+01,-4.837448883056640625e+01,-4.777660369873046875e+01,-4.756707000732421875e+01,-4.659762573242187500e+01,-4.541267776489257812e+01,-4.515734863281250000e+01,-4.582630157470703125e+01,-4.660396957397460938e+01,-4.711908340454101562e+01,-4.776547241210937500e+01,-4.835507965087890625e+01,-4.799450683593750000e+01,-4.685047149658203125e+01,-4.581554031372070312e+01,-4.555935287475585938e+01,-4.635616302490234375e+01,-4.771591949462890625e+01,-4.806600570678710938e+01,-4.703561401367187500e+01,-4.516168212890625000e+01,-4.338967132568359375e+01,-4.289281845092773438e+01,-4.418461608886718750e+01,-4.695521163940429688e+01,-4.773950576782226562e+01,-4.575000000000000000e+01,-4.459231567382812500e+01,-4.486202239990234375e+01,-4.582684326171875000e+01,-4.570634460449218750e+01,-4.454999542236328125e+01,-4.382131958007812500e+01,-4.377270507812500000e+01,-4.391603088378906250e+01,-4.382120132446289062e+01,-4.379705810546875000e+01,-4.409444427490234375e+01,-4.438722229003906250e+01,-4.428364562988281250e+01,-4.415286254882812500e+01,-4.449995040893554688e+01,-4.490796661376953125e+01,-4.442578125000000000e+01,-4.357571029663085938e+01,-4.349832153320312500e+01,-4.432334899902343750e+01,-4.502819061279296875e+01,-4.458886718750000000e+01,-4.367127227783203125e+01,-4.191862106323242188e+01,-3.946435546875000000e+01,-3.213563537597656250e+01,-2.370531463623046875e+01,-1.953129959106445312e+01,-1.837314605712890625e+01,-1.988708686828613281e+01,-2.443417358398437500e+01,-2.973703002929687500e+01,-2.814351463317871094e+01,-2.635628318786621094e+01,-2.461458969116210938e+01,-2.361666297912597656e+01,-2.422610282897949219e+01,-2.687131881713867188e+01,-3.123430061340332031e+01,-3.592742538452148438e+01,-4.213094329833984375e+01,-4.716636657714843750e+01,-4.836121368408203125e+01,-4.996710586547851562e+01,-5.189071655273437500e+01,-5.155487823486328125e+01,-5.089011001586914062e+01,-5.159030151367187500e+01,-5.341942596435546875e+01,-5.505858612060546875e+01,-5.538162994384765625e+01,-5.471286392211914062e+01,-5.368662261962890625e+01,-5.283412170410156250e+01,-5.119866943359375000e+01,-4.924908447265625000e+01,-4.870595932006835938e+01,-5.030953979492187500e+01,-5.458660125732421875e+01,-6.077999114990234375e+01,-6.192885589599609375e+01,-6.172988891601562500e+01,-6.120388031005859375e+01,-5.964366149902343750e+01,-5.807466125488281250e+01,-5.743943023681640625e+01,-5.761972808837890625e+01,-5.765336608886718750e+01,-5.614070129394531250e+01,-5.320207977294921875e+01,-5.112220764160156250e+01,-5.078489685058593750e+01
-5.118778228759765625e+01,-5.117376708984375000e+01,-5.235036468505859375e+01,-5.361952209472656250e+01,-5.101498413085937500e+01,-4.652267837524414062e+01,-4.400091552734375000e+01,-4.369816589355468750e+01,-4.546793746948242188e+01,-4.850706100463867188e+01,-4.977496337890625000e+01,-4.928768920898437500e+01,-4.907892227172851562e+01,-4.925059127807617188e+01,-4.944591522216796875e+01,-4.907721328735351562e+01,-4.804332733154296875e+01,-4.738945007324218750e+01,-4.749505996704101562e+01,-4.749806213378906250e+01,-4.668046951293945312e+01,-4.588269042968750000e+01,-4.582246398925781250e+01,-4.663526153564453125e+01,-4.810876464843750000e+01,-4.926292037963867188e+01,-4.838726043701171875e+01,-4.608219146728515625e+01,-4.463470458984375000e+01,-4.471850585937500000e+01,-4.612538146972656250e+01,-4.778144073486328125e+01,-4.819559478759765625e+01,-4.768405151367187500e+01,-4.716857910156250000e+01,-4.674388885498046875e+01,-4.625276565551757812e+01,-4.603888702392578125e+01,-4.643495941162109375e+01,-4.687596893310546875e+01,-4.674234008789062500e+01,-4.651465606689453125e+01,-4.655021667480468750e+01,-4.669176483154296875e+01,-4.634485626220703125e+01,-4.530329513549804688e+01,-4.442821502685546875e+01,-4.444573974609375000e+01,-4.469892883300781250e+01,-4.322474670410156250e+01,-4.076182937622070312e+01,-3.925781250000000000e+01,-3.903916168212890625e+01,-3.986845397949218750e+01,-4.122830963134765625e+01,-4.248519134521484375e+01,-4.309013366699218750e+01,-4.276495361328125000e+01,-4.225331115722656250e+01,-4.213505554199218750e+01,-4.242419433593750000e+01,-4.275508880615234375e+01,-4.306571960449218750e+01,-4.360020446777343750e+01,-4.431216430664062500e+01,-4.266908264160156250e+01,-3.864438629150390625e+01,-3.200034332275390625e+01,-2.430795860290527344e+01,-2.028644943237304688e+01,-1.917492485046386719e+01,-2.069962310791015625e+01,-2.491304206848144531e+01,-2.707332420349121094e+01,-2.485993957519531250e+01,-2.398310852050781250e+01,-2.365165901184082031e+01,-2.333410263061523438e+01,-2.380190849304199219e+01,-2.584669494628906250e+01,-2.932775115966796875e+01,-3.391487884521484375e+01,-4.023284149169921875e+01,-4.378305816650390625e+01,-4.464811706542968750e+01,-4.645505523681640625e+01,-4.927127075195312500e+01,-5.010353088378906250e+01,-5.017642593383789062e+01,-5.157296752929687500e+01,-5.378668975830078125e+01,-5.520389556884765625e+01,-5.519128799438476562e+01,-5.408858108520507812e+01,-5.318293380737304688e+01,-5.248620605468750000e+01,-4.930886077880859375e+01,-4.618270111083984375e+01,-4.523193359375000000e+01,-4.673675155639648438e+01,-5.115742492675781250e+01,-5.892030334472656250e+01,-6.274947357177734375e+01,-6.304123687744140625e+01,-6.189646148681640625e+01,-6.004857635498046875e+01,-5.844062042236328125e+01,-5.737225341796875000e+01,-5.700727081298828125e+01,-5.722065734863281250e+01,-5.398349761962890625e+01,-4.870915985107421875e+01,-4.601568603515625000e+01,-4.587622070312500000e+01
-5.179451751708984375e+01,-5.257344055175781250e+01,-5.274249649047851562e+01,-5.195721435546875000e+01,-4.911499786376953125e+01,-4.496797943115234375e+01,-4.264178466796875000e+01,-4.260936737060546875e+01,-4.485153579711914062e+01,-4.868323516845703125e+01,-5.025366592407226562e+01,-4.957387542724609375e+01,-4.918401718139648438e+01,-4.951757431030273438e+01,-5.031661987304687500e+01,-5.065323638916015625e+01,-4.992300415039062500e+01,-4.865013885498046875e+01,-4.767482757568359375e+01,-4.736689758300781250e+01,-4.766864776611328125e+01,-4.803779220581054688e+01,-4.814474487304687500e+01,-4.831864929199218750e+01,-4.863515472412109375e+01,-4.899387359619140625e+01,-4.926278686523437500e+01,-4.866706848144531250e+01,-4.714794921875000000e+01,-4.619366455078125000e+01,-4.645463562011718750e+01,-4.738719177246093750e+01,-4.763650512695312500e+01,-4.716374206542968750e+01,-4.700864410400390625e+01,-4.713291168212890625e+01,-4.703808593750000000e+01,-4.700268554687500000e+01,-4.730415344238281250e+01,-4.748033523559570312e+01,-4.706943511962890625e+01,-4.649970626831054688e+01,-4.620017242431640625e+01,-4.614371871948242188e+01,-4.587181091308593750e+01,-4.515278625488281250e+01,-4.455594253540039062e+01,-4.435868453979492188e+01,-4.419872283935546875e+01,-4.318295288085937500e+01,-4.124445343017578125e+01,-3.993101501464843750e+01,-4.005917358398437500e+01,-4.165472030639648438e+01,-4.374548339843750000e+01,-4.451743316650390625e+01,-4.438085937500000000e+01,-4.412672424316406250e+01,-4.370827102661132812e+01,-4.290833663940429688e+01,-4.202456283569335938e+01,-4.167607879638671875e+01,-4.225484466552734375e+01,-4.362252807617187500e+01,-4.494236755371093750e+01,-4.373132324218750000e+01,-3.971520233154296875e+01,-3.094749069213867188e+01,-2.272781944274902344e+01,-1.880776023864746094e+01,-1.787836837768554688e+01,-1.966172409057617188e+01,-2.453391647338867188e+01,-2.862709999084472656e+01,-2.660405158996582031e+01,-2.626583290100097656e+01,-2.723016548156738281e+01,-2.769642448425292969e+01,-2.773262214660644531e+01,-2.912478828430175781e+01,-3.240204620361328125e+01,-3.758798980712890625e+01,-4.403619766235351562e+01,-4.923301696777343750e+01,-5.113259124755859375e+01,-5.169378662109375000e+01,-5.173468780517578125e+01,-5.041574096679687500e+01,-4.942483520507812500e+01,-4.985684967041015625e+01,-5.158145141601562500e+01,-5.370436477661132812e+01,-5.489747619628906250e+01,-5.502821350097656250e+01,-5.499369049072265625e+01,-5.452902984619140625e+01,-5.162304687500000000e+01,-4.875179290771484375e+01,-4.793810272216796875e+01,-4.949067687988281250e+01,-5.377333831787109375e+01,-6.055792236328125000e+01,-6.324423217773437500e+01,-6.273606109619140625e+01,-6.088497161865234375e+01,-5.914540863037109375e+01,-5.802568054199218750e+01,-5.728089141845703125e+01,-5.701532745361328125e+01,-5.734815216064453125e+01,-5.217513275146484375e+01,-4.592270660400390625e+01,-4.298125457763671875e+01,-4.274758911132812500e+01
-5.283113098144531250e+01,-5.266444396972656250e+01,-5.230221557617187500e+01,-5.185300827026367188e+01,-5.009564971923828125e+01,-4.628215408325195312e+01,-4.373037338256835938e+01,-4.335495376586914062e+01,-4.516529083251953125e+01,-4.850934600830078125e+01,-5.004019165039062500e+01,-4.930741882324218750e+01,-4.868917846679687500e+01,-4.854085540771484375e+01,-4.874036407470703125e+01,-4.928483581542968750e+01,-4.960277175903320312e+01,-4.839166641235351562e+01,-4.661431884765625000e+01,-4.592430114746093750e+01,-4.677891540527343750e+01,-4.888349914550781250e+01,-5.055493164062500000e+01,-4.996399688720703125e+01,-4.876084136962890625e+01,-4.857186889648437500e+01,-4.954920578002929688e+01,-4.995737838745117188e+01,-4.873441696166992188e+01,-4.772364807128906250e+01,-4.736254882812500000e+01,-4.698710632324218750e+01,-4.663967895507812500e+01,-4.673683166503906250e+01,-4.712990570068359375e+01,-4.717617034912109375e+01,-4.664152526855468750e+01,-4.618078613281250000e+01,-4.609866333007812500e+01,-4.604162597656250000e+01,-4.581299591064453125e+01,-4.592052078247070312e+01,-4.657296371459960938e+01,-4.705939102172851562e+01,-4.651144409179687500e+01,-4.535530471801757812e+01,-4.474507141113281250e+01,-4.478314208984375000e+01,-4.380710601806640625e+01,-4.173270034790039062e+01,-4.040941238403320312e+01,-4.051272201538085938e+01,-4.181785583496093750e+01,-4.334323883056640625e+01,-4.427346801757812500e+01,-4.515856933593750000e+01,-4.586325836181640625e+01,-4.476544952392578125e+01,-4.293490600585937500e+01,-4.174462127685546875e+01,-4.129246520996093750e+01,-4.162873840332031250e+01,-4.294112777709960938e+01,-4.508897399902343750e+01,-4.675451660156250000e+01,-4.576309967041015625e+01,-4.318772888183593750e+01,-3.461262893676757812e+01,-2.627744293212890625e+01,-2.230121612548828125e+01,-2.131926727294921875e+01,-2.302882957458496094e+01,-2.796396255493164062e+01,-3.619026184082031250e+01,-3.695314407348632812e+01,-3.498840332031250000e+01,-3.219128036499023438e+01,-2.983225250244140625e+01,-2.895700454711914062e+01,-2.982467269897460938e+01,-3.250251770019531250e+01,-3.718830871582031250e+01,-4.362995910644531250e+01,-4.964239120483398438e+01,-5.308942413330078125e+01,-5.304876708984375000e+01,-4.985900878906250000e+01,-4.736421203613281250e+01,-4.699999237060546875e+01,-4.889951324462890625e+01,-5.317218017578125000e+01,-5.875456237792968750e+01,-6.041190338134765625e+01,-5.644623565673828125e+01,-5.272552490234375000e+01,-5.050463104248046875e+01,-4.956738281250000000e+01,-4.972011566162109375e+01,-5.106335449218750000e+01,-5.391047286987304688e+01,-5.821865081787109375e+01,-6.180648040771484375e+01,-6.206779479980468750e+01,-6.151776885986328125e+01,-6.094924163818359375e+01,-6.018669128417968750e+01,-5.862615203857421875e+01,-5.718568420410156250e+01,-5.693468475341796875e+01,-5.812989044189453125e+01,-5.483937072753906250e+01,-4.854206085205078125e+01,-4.535045242309570312e+01,-4.486936187744140625e+01
-4.930560302734375000e+01,-4.910051345825195312e+01,-4.924908447265625000e+01,-4.961934661865234375e+01,-4.937597656250000000e+01,-4.746292114257812500e+01,-4.554586791992187500e+01,-4.502227020263671875e+01,-4.596563339233398438e+01,-4.727421569824218750e+01,-4.750459289550781250e+01,-4.758625793457031250e+01,-4.842508697509765625e+01,-4.940253448486328125e+01,-4.928154754638671875e+01,-4.860608673095703125e+01,-4.824086761474609375e+01,-4.810607910156250000e+01,-4.773632049560546875e+01,-4.725216674804687500e+01,-4.717155456542968750e+01,-4.725423431396484375e+01,-4.679364776611328125e+01,-4.626196289062500000e+01,-4.652440643310546875e+01,-4.757128524780273438e+01,-4.824253845214843750e+01,-4.768896102905273438e+01,-4.680892181396484375e+01,-4.640161895751953125e+01,-4.654116821289062500e+01,-4.693289566040039062e+01,-4.742255401611328125e+01,-4.800935363769531250e+01,-4.856649780273437500e+01,-4.839575958251953125e+01,-4.729157257080078125e+01,-4.645564651489257812e+01,-4.647364807128906250e+01,-4.682579040527343750e+01,-4.692510986328125000e+01,-4.681606292724609375e+01,-4.651013946533203125e+01,-4.595493316650390625e+01,-4.531698608398437500e+01,-4.474578857421875000e+01,-4.444355773925781250e+01,-4.456782531738281250e+01,-4.479568481445312500e+01,-4.450729370117187500e+01,-4.401535034179687500e+01,-4.387170410156250000e+01,-4.392389297485351562e+01,-4.387817764282226562e+01,-4.407342147827148438e+01,-4.451653289794921875e+01,-4.429674911499023438e+01,-4.373827362060546875e+01,-4.383866119384765625e+01,-4.447187423706054688e+01,-4.474426269531250000e+01,-4.458583068847656250e+01,-4.477164459228515625e+01,-4.559403991699218750e+01,-4.635840988159179688e+01,-4.527941894531250000e+01,-4.345723724365234375e+01,-4.005475234985351562e+01,-3.246614837646484375e+01,-2.796330070495605469e+01,-2.646240425109863281e+01,-2.759876823425292969e+01,-3.131091308593750000e+01,-3.374937820434570312e+01,-3.191516113281250000e+01,-3.056735038757324219e+01,-2.901193428039550781e+01,-2.734375762939453125e+01,-2.661595916748046875e+01,-2.742778587341308594e+01,-3.000708770751953125e+01,-3.493124008178710938e+01,-4.339615631103515625e+01,-5.053246307373046875e+01,-5.324281311035156250e+01,-5.135970306396484375e+01,-4.636196136474609375e+01,-4.312583923339843750e+01,-4.224597930908203125e+01,-4.365977859497070312e+01,-4.756702423095703125e+01,-5.397372436523437500e+01,-5.760972595214843750e+01,-5.212272644042968750e+01,-4.577142715454101562e+01,-4.194660186767578125e+01,-4.058975219726562500e+01,-4.149493408203125000e+01,-4.477122497558593750e+01,-5.057746887207031250e+01,-5.714321136474609375e+01,-6.057183837890625000e+01,-5.928560638427734375e+01,-5.810117340087890625e+01,-5.828181076049804688e+01,-5.935777282714843750e+01,-5.984152984619140625e+01,-5.944072723388671875e+01,-5.922966003417968750e+01,-5.920455932617187500e+01,-5.758306884765625000e+01,-5.435178756713867188e+01,-5.244374847412109375e+01,-5.260304260253906250e+01
-4.988336181640625000e+01,-4.989365386962890625e+01,-5.059178924560546875e+01,-5.087268829345703125e+01,-4.989574432373046875e+01,-4.826765060424804688e+01,-4.705272674560546875e+01,-4.693107604980468750e+01,-4.805731964111328125e+01,-4.967363739013671875e+01,-5.025691223144531250e+01,-5.004670715332031250e+01,-5.009292221069335938e+01,-5.060723114013671875e+01,-5.103013610839843750e+01,-5.013362121582031250e+01,-4.846341705322265625e+01,-4.744789123535156250e+01,-4.745502471923828125e+01,-4.799938964843750000e+01,-4.815187835693359375e+01,-4.784564971923828125e+01,-4.769429016113281250e+01,-4.773029327392578125e+01,-4.775669097900390625e+01,-4.794342041015625000e+01,-4.793676757812500000e+01,-4.732942962646484375e+01,-4.659079742431640625e+01,-4.632492065429687500e+01,-4.667118835449218750e+01,-4.763645172119140625e+01,-4.905484771728515625e+01,-5.001790618896484375e+01,-4.999851226806640625e+01,-4.918515014648437500e+01,-4.800888824462890625e+01,-4.721223449707031250e+01,-4.696538543701171875e+01,-4.671210479736328125e+01,-4.632836914062500000e+01,-4.614654541015625000e+01,-4.620886993408203125e+01,-4.641155242919921875e+01,-4.684321594238281250e+01,-4.735354614257812500e+01,-4.728611755371093750e+01,-4.640976715087890625e+01,-4.556806182861328125e+01,-4.549346923828125000e+01,-4.553086090087890625e+01,-4.451778411865234375e+01,-4.323957824707031250e+01,-4.276431655883789062e+01,-4.309709930419921875e+01,-4.348286437988281250e+01,-4.306438446044921875e+01,-4.217929077148437500e+01,-4.191432952880859375e+01,-4.283572769165039062e+01,-4.475014495849609375e+01,-4.653171920776367188e+01,-4.718297576904296875e+01,-4.724160003662109375e+01,-4.687467956542968750e+01,-4.627814483642578125e+01,-4.597547912597656250e+01,-4.421419906616210938e+01,-3.573857879638671875e+01,-3.057367134094238281e+01,-2.867261505126953125e+01,-2.945758056640625000e+01,-3.190665817260742188e+01,-3.057360649108886719e+01,-2.811800384521484375e+01,-2.770741271972656250e+01,-2.845622253417968750e+01,-2.809585571289062500e+01,-2.685047721862792969e+01,-2.688551139831542969e+01,-2.893390083312988281e+01,-3.374142456054687500e+01,-4.288642883300781250e+01,-5.010250091552734375e+01,-5.094402313232421875e+01,-5.006734466552734375e+01,-4.670610046386718750e+01,-4.405160903930664062e+01,-4.348114013671875000e+01,-4.515922164916992188e+01,-4.928218078613281250e+01,-5.529947280883789062e+01,-5.803152465820312500e+01,-5.452238464355468750e+01,-5.023617553710937500e+01,-4.735550689697265625e+01,-4.612730789184570312e+01,-4.648733901977539062e+01,-4.838785552978515625e+01,-5.176512908935546875e+01,-5.625526428222656250e+01,-5.980570983886718750e+01,-5.893000793457031250e+01,-5.748421478271484375e+01,-5.729882049560546875e+01,-5.807849884033203125e+01,-5.885128021240234375e+01,-5.891377258300781250e+01,-5.867678833007812500e+01,-5.843308258056640625e+01,-5.634854888916015625e+01,-5.250445175170898438e+01,-5.027663421630859375e+01,-5.023688125610351562e+01
-5.012163925170898438e+01,-5.034395217895507812e+01,-5.148576736450195312e+01,-5.123956680297851562e+01,-4.939426422119140625e+01,-4.766708374023437500e+01,-4.669160461425781250e+01,-4.656780242919921875e+01,-4.712236022949218750e+01,-4.798231124877929688e+01,-4.881502914428710938e+01,-4.940811157226562500e+01,-4.913816452026367188e+01,-4.827049255371093750e+01,-4.801882934570312500e+01,-4.860872650146484375e+01,-4.920010375976562500e+01,-4.929646301269531250e+01,-4.943569946289062500e+01,-4.857907104492187500e+01,-4.675600814819335938e+01,-4.592856216430664062e+01,-4.654183959960937500e+01,-4.748015975952148438e+01,-4.729814147949218750e+01,-4.685468292236328125e+01,-4.681520843505859375e+01,-4.662029647827148438e+01,-4.605510330200195312e+01,-4.582442474365234375e+01,-4.621530151367187500e+01,-4.689194488525390625e+01,-4.753383636474609375e+01,-4.824979400634765625e+01,-4.884716033935546875e+01,-4.743618011474609375e+01,-4.518216705322265625e+01,-4.422740554809570312e+01,-4.477999114990234375e+01,-4.593428802490234375e+01,-4.650650787353515625e+01,-4.687532043457031250e+01,-4.734552764892578125e+01,-4.745765686035156250e+01,-4.763843536376953125e+01,-4.844901275634765625e+01,-4.926254272460937500e+01,-4.844558334350585938e+01,-4.662038040161132812e+01,-4.490818405151367188e+01,-4.314518737792968750e+01,-4.193874359130859375e+01,-4.187236785888671875e+01,-4.270165252685546875e+01,-4.332170867919921875e+01,-4.308796310424804688e+01,-4.261643218994140625e+01,-4.243032073974609375e+01,-4.295941162109375000e+01,-4.445525741577148438e+01,-4.662791442871093750e+01,-4.825489807128906250e+01,-4.843055725097656250e+01,-4.822768020629882812e+01,-4.859669494628906250e+01,-4.869819259643554688e+01,-4.716321563720703125e+01,-4.483363342285156250e+01,-3.987223052978515625e+01,-3.570792007446289062e+01,-3.402731323242187500e+01,-3.477989959716796875e+01,-3.565289306640625000e+01,-3.190230178833007812e+01,-2.914368629455566406e+01,-2.859969711303710938e+01,-2.926360511779785156e+01,-2.915147018432617188e+01,-2.820010757446289062e+01,-2.834471130371093750e+01,-3.035305595397949219e+01,-3.491545486450195312e+01,-4.328022003173828125e+01,-5.040391921997070312e+01,-5.181481170654296875e+01,-5.101497650146484375e+01,-4.800476074218750000e+01,-4.569821929931640625e+01,-4.538448333740234375e+01,-4.723689270019531250e+01,-5.127663421630859375e+01,-5.613729476928710938e+01,-5.704676055908203125e+01,-5.375062942504882812e+01,-5.042926788330078125e+01,-4.844265747070312500e+01,-4.778651428222656250e+01,-4.835264587402343750e+01,-5.017815399169921875e+01,-5.347568130493164062e+01,-5.834732818603515625e+01,-6.197242736816406250e+01,-6.045191955566406250e+01,-5.903315734863281250e+01,-5.918337249755859375e+01,-6.018019866943359375e+01,-5.993988037109375000e+01,-5.866873931884765625e+01,-5.813562393188476562e+01,-5.841081619262695312e+01,-5.480945587158203125e+01,-4.937022399902343750e+01,-4.664405059814453125e+01,-4.647629928588867188e+01
-5.092347717285156250e+01,-5.148711395263671875e+01,-5.271534729003906250e+01,-5.248067855834960938e+01,-5.054637908935546875e+01,-4.858015441894531250e+01,-4.749740600585937500e+01,-4.753603363037109375e+01,-4.820676422119140625e+01,-4.885767745971679688e+01,-4.957828140258789062e+01,-5.015254592895507812e+01,-4.909832000732421875e+01,-4.750843048095703125e+01,-4.710532379150390625e+01,-4.765279388427734375e+01,-4.788204956054687500e+01,-4.772727584838867188e+01,-4.809452056884765625e+01,-4.779193115234375000e+01,-4.643483734130859375e+01,-4.598963165283203125e+01,-4.696062469482421875e+01,-4.774411773681640625e+01,-4.687165069580078125e+01,-4.623575592041015625e+01,-4.681863403320312500e+01,-4.799056243896484375e+01,-4.798715591430664062e+01,-4.722369384765625000e+01,-4.735382080078125000e+01,-4.868189239501953125e+01,-5.034138488769531250e+01,-5.072614288330078125e+01,-4.900515365600585938e+01,-4.417190551757812500e+01,-4.071929931640625000e+01,-3.972387313842773438e+01,-4.108573913574218750e+01,-4.454264068603515625e+01,-4.749168395996093750e+01,-4.695196914672851562e+01,-4.594529724121093750e+01,-4.581684494018554688e+01,-4.689598083496093750e+01,-4.830159759521484375e+01,-4.860564804077148438e+01,-4.861518859863281250e+01,-4.880594253540039062e+01,-4.771074676513671875e+01,-4.552571868896484375e+01,-4.429013061523437500e+01,-4.455624389648437500e+01,-4.555902099609375000e+01,-4.561408996582031250e+01,-4.483885955810546875e+01,-4.421300506591796875e+01,-4.388220977783203125e+01,-4.415272903442382812e+01,-4.539194488525390625e+01,-4.721189498901367188e+01,-4.803437805175781250e+01,-4.798001098632812500e+01,-4.851674652099609375e+01,-4.986880111694335938e+01,-4.951868820190429688e+01,-4.574279022216796875e+01,-4.127240371704101562e+01,-3.392955398559570312e+01,-2.930444717407226562e+01,-2.763394546508789062e+01,-2.858617401123046875e+01,-3.230262756347656250e+01,-3.646526718139648438e+01,-3.504184341430664062e+01,-3.311546325683593750e+01,-3.123077201843261719e+01,-2.995296096801757812e+01,-2.996785736083984375e+01,-3.151981353759765625e+01,-3.446511459350585938e+01,-3.882174682617187500e+01,-4.520847320556640625e+01,-5.118572998046875000e+01,-5.283398437500000000e+01,-4.829032135009765625e+01,-4.274767303466796875e+01,-3.994983673095703125e+01,-3.971671295166015625e+01,-4.202943038940429688e+01,-4.738870239257812500e+01,-5.540153121948242188e+01,-5.739688491821289062e+01,-5.457701873779296875e+01,-5.159864807128906250e+01,-4.938203430175781250e+01,-4.842560577392578125e+01,-4.896588134765625000e+01,-5.113192367553710938e+01,-5.485078430175781250e+01,-5.928946685791015625e+01,-6.269071960449218750e+01,-6.245777893066406250e+01,-6.153125000000000000e+01,-6.124198150634765625e+01,-6.054243469238281250e+01,-5.929293823242187500e+01,-5.851190948486328125e+01,-5.861833190917968750e+01,-5.914434814453125000e+01,-5.696329879760742188e+01,-5.208470153808593750e+01,-4.929596710205078125e+01,-4.899446487426757812e+01
-4.956227874755859375e+01,-5.040830993652343750e+01,-5.203031921386718750e+01,-5.267510223388671875e+01,-5.112915802001953125e+01,-4.826967620849609375e+01,-4.644421386718750000e+01,-4.646934890747070312e+01,-4.831593322753906250e+01,-5.066158294677734375e+01,-5.096817016601562500e+01,-5.023340606689453125e+01,-4.915937042236328125e+01,-4.823580932617187500e+01,-4.830770111083984375e+01,-4.947987365722656250e+01,-5.063959503173828125e+01,-5.084264755249023438e+01,-5.081687927246093750e+01,-4.980174255371093750e+01,-4.813282775878906250e+01,-4.743915557861328125e+01,-4.793538665771484375e+01,-4.879268646240234375e+01,-4.910162734985351562e+01,-4.913637924194335938e+01,-4.923967742919921875e+01,-4.905110168457031250e+01,-4.820336914062500000e+01,-4.754838562011718750e+01,-4.785180664062500000e+01,-4.889256286621093750e+01,-4.992158508300781250e+01,-5.072927474975585938e+01,-5.055431365966796875e+01,-4.712098693847656250e+01,-4.415280914306640625e+01,-4.333398818969726562e+01,-4.468505859375000000e+01,-4.772587585449218750e+01,-4.982480621337890625e+01,-4.925203704833984375e+01,-4.761940765380859375e+01,-4.591294860839843750e+01,-4.516775512695312500e+01,-4.553204345703125000e+01,-4.644465637207031250e+01,-4.721291351318359375e+01,-4.789745330810546875e+01,-4.859693145751953125e+01,-4.816184616088867188e+01,-4.708668518066406250e+01,-4.649976730346679688e+01,-4.622869110107421875e+01,-4.560892486572265625e+01,-4.490032196044921875e+01,-4.450905990600585938e+01,-4.429712295532226562e+01,-4.438076782226562500e+01,-4.521195983886718750e+01,-4.703280639648437500e+01,-4.920225524902343750e+01,-5.027490234375000000e+01,-4.976705932617187500e+01,-4.852036285400390625e+01,-4.670404434204101562e+01,-4.427743148803710938e+01,-3.961797332763671875e+01,-3.206700134277343750e+01,-2.768170928955078125e+01,-2.621896934509277344e+01,-2.735372734069824219e+01,-3.127185058593750000e+01,-3.566751861572265625e+01,-3.421701049804687500e+01,-3.218408584594726562e+01,-2.990592575073242188e+01,-2.784001731872558594e+01,-2.695711898803710938e+01,-2.772554206848144531e+01,-3.036501884460449219e+01,-3.535337066650390625e+01,-4.340092468261718750e+01,-4.926637268066406250e+01,-5.006663513183593750e+01,-4.795743560791015625e+01,-4.365590667724609375e+01,-4.112750244140625000e+01,-4.094187164306640625e+01,-4.315523147583007812e+01,-4.812081146240234375e+01,-5.572617340087890625e+01,-6.139581298828125000e+01,-6.177333068847656250e+01,-5.796065902709960938e+01,-5.359352111816406250e+01,-5.090223693847656250e+01,-4.993150329589843750e+01,-5.064752578735351562e+01,-5.311502075195312500e+01,-5.744534301757812500e+01,-6.235491943359375000e+01,-6.259539794921875000e+01,-6.193936920166015625e+01,-6.232891845703125000e+01,-6.321461486816406250e+01,-6.300947570800781250e+01,-6.176496124267578125e+01,-6.114566802978515625e+01,-6.154476928710937500e+01,-5.989891815185546875e+01,-5.507238006591796875e+01,-5.221198272705078125e+01,-5.182338333129882812e+01
-5.376964569091796875e+01,-5.405929565429687500e+01,-5.360705184936523438e+01,-5.231166076660156250e+01,-5.030487823486328125e+01,-4.754895019531250000e+01,-4.570524597167968750e+01,-4.559442138671875000e+01,-4.717391204833984375e+01,-4.896700286865234375e+01,-4.865214538574218750e+01,-4.806159973144531250e+01,-4.846643447875976562e+01,-4.966691970825195312e+01,-5.103418350219726562e+01,-5.164400863647460938e+01,-5.086483001708984375e+01,-4.967956542968750000e+01,-4.900057983398437500e+01,-4.855224609375000000e+01,-4.820920944213867188e+01,-4.835320281982421875e+01,-4.901531982421875000e+01,-4.958617401123046875e+01,-4.951864624023437500e+01,-4.921123504638671875e+01,-4.933954620361328125e+01,-4.982132720947265625e+01,-4.952601242065429688e+01,-4.871428680419921875e+01,-4.847310638427734375e+01,-4.879106140136718750e+01,-4.917109680175781250e+01,-4.956149291992187500e+01,-4.982379913330078125e+01,-4.839685821533203125e+01,-4.618531799316406250e+01,-4.523339080810546875e+01,-4.590563583374023438e+01,-4.737095642089843750e+01,-4.804092407226562500e+01,-4.808804321289062500e+01,-4.792431640625000000e+01,-4.708007812500000000e+01,-4.644359588623046875e+01,-4.675481414794921875e+01,-4.774108886718750000e+01,-4.838202285766601562e+01,-4.809049224853515625e+01,-4.771761703491210938e+01,-4.788521575927734375e+01,-4.837544250488281250e+01,-4.833048629760742188e+01,-4.757449340820312500e+01,-4.662937927246093750e+01,-4.581504821777343750e+01,-4.512697601318359375e+01,-4.450317382812500000e+01,-4.418927383422851562e+01,-4.460074234008789062e+01,-4.578910827636718750e+01,-4.702291107177734375e+01,-4.747381210327148438e+01,-4.760549926757812500e+01,-4.785108566284179688e+01,-4.517343902587890625e+01,-4.011634445190429688e+01,-3.628536987304687500e+01,-3.132951354980468750e+01,-2.762240982055664062e+01,-2.627586746215820312e+01,-2.736775970458984375e+01,-3.108377647399902344e+01,-3.439034271240234375e+01,-3.259371948242187500e+01,-3.149878311157226562e+01,-3.072319030761718750e+01,-2.853350257873535156e+01,-2.662507438659667969e+01,-2.649163246154785156e+01,-2.854640197753906250e+01,-3.339066314697265625e+01,-4.219725799560546875e+01,-5.029543304443359375e+01,-5.130072784423828125e+01,-4.952681732177734375e+01,-4.529592895507812500e+01,-4.251425170898437500e+01,-4.201396560668945312e+01,-4.387511444091796875e+01,-4.847914886474609375e+01,-5.613010406494140625e+01,-6.148909759521484375e+01,-6.089547729492187500e+01,-5.735034179687500000e+01,-5.432672119140625000e+01,-5.236418151855468750e+01,-5.125548553466796875e+01,-5.133214950561523438e+01,-5.308466339111328125e+01,-5.705736541748046875e+01,-6.216188049316406250e+01,-6.293086242675781250e+01,-6.248438262939453125e+01,-6.225752258300781250e+01,-6.222213745117187500e+01,-6.246179199218750000e+01,-6.258798980712890625e+01,-6.215135955810546875e+01,-6.174629974365234375e+01,-6.159508514404296875e+01,-6.029077148437500000e+01,-5.868565368652343750e+01,-5.839074707031250000e+01
-5.427071380615234375e+01,-5.308005523681640625e+01,-5.204376220703125000e+01,-5.132843017578125000e+01,-5.060853958129882812e+01,-4.858274841308593750e+01,-4.655348205566406250e+01,-4.599782180786132812e+01,-4.710071563720703125e+01,-4.890721893310546875e+01,-4.928236007690429688e+01,-4.893051147460937500e+01,-4.917025756835937500e+01,-4.992447662353515625e+01,-5.076688385009765625e+01,-5.105648040771484375e+01,-5.013513565063476562e+01,-4.869122314453125000e+01,-4.765340423583984375e+01,-4.703969573974609375e+01,-4.695713806152343750e+01,-4.747247695922851562e+01,-4.798639678955078125e+01,-4.791290283203125000e+01,-4.795927047729492188e+01,-4.857122421264648438e+01,-4.899823760986328125e+01,-4.870235443115234375e+01,-4.825927734375000000e+01,-4.813590240478515625e+01,-4.824779510498046875e+01,-4.846585083007812500e+01,-4.877876281738281250e+01,-4.920664978027343750e+01,-4.940001296997070312e+01,-4.769623565673828125e+01,-4.525300598144531250e+01,-4.417708969116210938e+01,-4.484331512451171875e+01,-4.661270141601562500e+01,-4.767369079589843750e+01,-4.779309082031250000e+01,-4.805943298339843750e+01,-4.796103286743164062e+01,-4.709613418579101562e+01,-4.628763580322265625e+01,-4.608840179443359375e+01,-4.647550201416015625e+01,-4.711320495605468750e+01,-4.741876983642578125e+01,-4.729621887207031250e+01,-4.705942916870117188e+01,-4.663727569580078125e+01,-4.616049194335937500e+01,-4.597365188598632812e+01,-4.598451232910156250e+01,-4.513277053833007812e+01,-4.356056976318359375e+01,-4.279927825927734375e+01,-4.355956649780273438e+01,-4.597578430175781250e+01,-4.883407211303710938e+01,-4.899480438232421875e+01,-4.799131011962890625e+01,-4.788540649414062500e+01,-4.651985168457031250e+01,-4.251539993286132812e+01,-3.469504165649414062e+01,-2.639090156555175781e+01,-2.223855590820312500e+01,-2.107823562622070312e+01,-2.257903099060058594e+01,-2.696453094482421875e+01,-3.069951248168945312e+01,-2.886804389953613281e+01,-2.827529335021972656e+01,-2.843904685974121094e+01,-2.749703598022460938e+01,-2.639046859741210938e+01,-2.679269981384277344e+01,-2.923898124694824219e+01,-3.441767883300781250e+01,-4.368264007568359375e+01,-5.164691925048828125e+01,-5.279098129272460938e+01,-4.921462249755859375e+01,-4.487452697753906250e+01,-4.262483596801757812e+01,-4.270034790039062500e+01,-4.520483398437500000e+01,-5.053152465820312500e+01,-5.784277725219726562e+01,-6.162105560302734375e+01,-6.210519409179687500e+01,-5.920769500732421875e+01,-5.514766693115234375e+01,-5.224015045166015625e+01,-5.058979797363281250e+01,-5.035051727294921875e+01,-5.175596618652343750e+01,-5.515625000000000000e+01,-6.045662689208984375e+01,-6.321767425537109375e+01,-6.332853698730468750e+01,-6.342778015136718750e+01,-6.327497863769531250e+01,-6.280634307861328125e+01,-6.223339843750000000e+01,-6.164265441894531250e+01,-6.118346405029296875e+01,-6.067555999755859375e+01,-5.933386230468750000e+01,-5.808855819702148438e+01,-5.794290542602539062e+01
-5.441307067871093750e+01,-5.429135894775390625e+01,-5.412406539916992188e+01,-5.352842330932617188e+01,-5.246886062622070312e+01,-5.070785522460937500e+01,-4.879386138916015625e+01,-4.759897232055664062e+01,-4.743347930908203125e+01,-4.808764648437500000e+01,-4.893931961059570312e+01,-4.947540283203125000e+01,-4.984989929199218750e+01,-5.019272613525390625e+01,-4.979593276977539062e+01,-4.865904235839843750e+01,-4.765856933593750000e+01,-4.725991058349609375e+01,-4.738456344604492188e+01,-4.772238159179687500e+01,-4.812164306640625000e+01,-4.863942718505859375e+01,-4.933565521240234375e+01,-4.984131622314453125e+01,-4.985538482666015625e+01,-4.958440399169921875e+01,-4.904358673095703125e+01,-4.793513488769531250e+01,-4.681401824951171875e+01,-4.642044067382812500e+01,-4.690225219726562500e+01,-4.785455322265625000e+01,-4.856875610351562500e+01,-4.882425689697265625e+01,-4.867122650146484375e+01,-4.699239349365234375e+01,-4.487508392333984375e+01,-4.411247253417968750e+01,-4.511080932617187500e+01,-4.736076354980468750e+01,-4.867881774902343750e+01,-4.830023193359375000e+01,-4.777982711791992188e+01,-4.731180191040039062e+01,-4.658921051025390625e+01,-4.571612930297851562e+01,-4.500923156738281250e+01,-4.477537536621093750e+01,-4.523039245605468750e+01,-4.600087738037109375e+01,-4.614450073242187500e+01,-4.578364562988281250e+01,-4.573813629150390625e+01,-4.622146606445312500e+01,-4.713204956054687500e+01,-4.794572448730468750e+01,-4.673809051513671875e+01,-4.439953613281250000e+01,-4.335674285888671875e+01,-4.406972885131835938e+01,-4.607289123535156250e+01,-4.775739669799804688e+01,-4.833722686767578125e+01,-4.911201095581054688e+01,-5.017625808715820312e+01,-4.972090530395507812e+01,-4.713003540039062500e+01,-3.422796249389648438e+01,-2.538765716552734375e+01,-2.131402015686035156e+01,-2.025398445129394531e+01,-2.185102844238281250e+01,-2.638495063781738281e+01,-3.080384826660156250e+01,-2.919739913940429688e+01,-2.871678924560546875e+01,-2.940768623352050781e+01,-2.889605331420898438e+01,-2.747538375854492188e+01,-2.735297775268554688e+01,-2.919623184204101562e+01,-3.355612182617187500e+01,-4.158258056640625000e+01,-5.245073699951171875e+01,-5.646494674682617188e+01,-4.903694915771484375e+01,-4.338491821289062500e+01,-4.078580093383789062e+01,-4.064166259765625000e+01,-4.285654067993164062e+01,-4.767894744873046875e+01,-5.498095321655273438e+01,-6.189145660400390625e+01,-6.336438751220703125e+01,-6.337561798095703125e+01,-6.102899932861328125e+01,-5.826365661621093750e+01,-5.664533615112304688e+01,-5.645066833496093750e+01,-5.760975646972656250e+01,-5.990340423583984375e+01,-6.277298736572265625e+01,-6.444401550292968750e+01,-6.389927673339843750e+01,-6.307967376708984375e+01,-6.303588867187500000e+01,-6.314331054687500000e+01,-6.314141082763671875e+01,-6.322507476806640625e+01,-6.265179443359375000e+01,-5.991934967041015625e+01,-5.631970214843750000e+01,-5.440860748291015625e+01,-5.466049194335937500e+01
-5.551367187500000000e+01,-5.576139068603515625e+01,-5.541313171386718750e+01,-5.433937072753906250e+01,-5.250505828857421875e+01,-4.927954101562500000e+01,-4.652938079833984375e+01,-4.543113708496093750e+01,-4.601583862304687500e+01,-4.777154541015625000e+01,-4.921862792968750000e+01,-4.926073837280273438e+01,-4.887199401855468750e+01,-4.890550231933593750e+01,-4.935245513916015625e+01,-4.919494628906250000e+01,-4.813316345214843750e+01,-4.732056427001953125e+01,-4.725703811645507812e+01,-4.748636627197265625e+01,-4.756463623046875000e+01,-4.790893173217773438e+01,-4.865788269042968750e+01,-4.910631561279296875e+01,-4.901058197021484375e+01,-4.908145141601562500e+01,-4.945436477661132812e+01,-4.958346557617187500e+01,-4.880480957031250000e+01,-4.735866546630859375e+01,-4.639298248291015625e+01,-4.663476562500000000e+01,-4.820365142822265625e+01,-5.011352539062500000e+01,-5.000917816162109375e+01,-4.821500396728515625e+01,-4.656166076660156250e+01,-4.583860015869140625e+01,-4.618548583984375000e+01,-4.732145690917968750e+01,-4.859304046630859375e+01,-4.946614837646484375e+01,-5.017398071289062500e+01,-5.089439010620117188e+01,-5.086119842529296875e+01,-4.923141479492187500e+01,-4.726523208618164062e+01,-4.598537445068359375e+01,-4.550558471679687500e+01,-4.543747711181640625e+01,-4.487225341796875000e+01,-4.402535247802734375e+01,-4.388850402832031250e+01,-4.475524139404296875e+01,-4.599018859863281250e+01,-4.668157958984375000e+01,-4.651084899902343750e+01,-4.571630477905273438e+01,-4.527425765991210938e+01,-4.576646423339843750e+01,-4.665954589843750000e+01,-4.670482635498046875e+01,-4.642866516113281250e+01,-4.701173782348632812e+01,-4.860133361816406250e+01,-4.983966445922851562e+01,-4.875199127197265625e+01,-3.939299392700195312e+01,-3.105244445800781250e+01,-2.715406799316406250e+01,-2.624462127685546875e+01,-2.801688766479492188e+01,-3.109337997436523438e+01,-2.854697036743164062e+01,-2.597869300842285156e+01,-2.597532272338867188e+01,-2.802166557312011719e+01,-3.013694381713867188e+01,-3.016859626770019531e+01,-3.075587844848632812e+01,-3.305377197265625000e+01,-3.748559570312500000e+01,-4.505379486083984375e+01,-5.285563659667968750e+01,-5.404166412353515625e+01,-4.541210937500000000e+01,-3.968211364746093750e+01,-3.720624160766601562e+01,-3.725324630737304688e+01,-3.973830413818359375e+01,-4.494320678710937500e+01,-5.262133407592773438e+01,-6.045971679687500000e+01,-6.081751251220703125e+01,-6.092129516601562500e+01,-6.198775482177734375e+01,-6.172203826904296875e+01,-5.997693634033203125e+01,-5.923721313476562500e+01,-5.997386169433593750e+01,-6.163497924804687500e+01,-6.311420440673828125e+01,-6.354350280761718750e+01,-6.266947174072265625e+01,-6.157952880859375000e+01,-6.152761077880859375e+01,-6.244550323486328125e+01,-6.317150115966796875e+01,-6.263478088378906250e+01,-6.152256774902343750e+01,-5.950776672363281250e+01,-5.654898452758789062e+01,-5.472400283813476562e+01,-5.481323242187500000e+01
-5.378840637207031250e+01,-5.406358718872070312e+01,-5.396491622924804688e+01,-5.298277664184570312e+01,-5.134204864501953125e+01,-4.915496063232421875e+01,-4.711781311035156250e+01,-4.609910202026367188e+01,-4.644374465942382812e+01,-4.809210586547851562e+01,-5.044789123535156250e+01,-5.226025390625000000e+01,-5.242578887939453125e+01,-5.107774353027343750e+01,-4.958775329589843750e+01,-4.880108642578125000e+01,-4.860205841064453125e+01,-4.871699523925781250e+01,-4.923047637939453125e+01,-5.010205078125000000e+01,-5.051661682128906250e+01,-5.026194763183593750e+01,-5.007611083984375000e+01,-5.014698028564453125e+01,-5.042047882080078125e+01,-5.080182647705078125e+01,-5.065293121337890625e+01,-4.977718353271484375e+01,-4.887370300292968750e+01,-4.825446319580078125e+01,-4.790907669067382812e+01,-4.806095123291015625e+01,-4.890948104858398438e+01,-4.992330551147460938e+01,-5.012776184082031250e+01,-4.956462097167968750e+01,-4.887563323974609375e+01,-4.816436004638671875e+01,-4.768949508666992188e+01,-4.790148544311523438e+01,-4.891565704345703125e+01,-4.994551467895507812e+01,-4.960369110107421875e+01,-4.857287597656250000e+01,-4.793249511718750000e+01,-4.765425872802734375e+01,-4.739026641845703125e+01,-4.725415039062500000e+01,-4.750384140014648438e+01,-4.774076080322265625e+01,-4.705403900146484375e+01,-4.572486877441406250e+01,-4.495063781738281250e+01,-4.532919311523437500e+01,-4.671532440185546875e+01,-4.807690429687500000e+01,-4.756673431396484375e+01,-4.584016418457031250e+01,-4.485953903198242188e+01,-4.520169448852539062e+01,-4.658898162841796875e+01,-4.788244247436523438e+01,-4.831670761108398438e+01,-4.840771484375000000e+01,-4.856302642822265625e+01,-4.815521240234375000e+01,-4.611936950683593750e+01,-4.338343048095703125e+01,-3.947789001464843750e+01,-3.670582580566406250e+01,-3.609518432617187500e+01,-3.774243545532226562e+01,-3.523052215576171875e+01,-2.946700668334960938e+01,-2.679952812194824219e+01,-2.649942016601562500e+01,-2.728702735900878906e+01,-2.735211563110351562e+01,-2.710974884033203125e+01,-2.825875854492187500e+01,-3.127290725708007812e+01,-3.651773834228515625e+01,-4.456644821166992188e+01,-5.225689697265625000e+01,-5.601940155029296875e+01,-5.059523010253906250e+01,-4.489049530029296875e+01,-4.208080291748046875e+01,-4.176717376708984375e+01,-4.389628601074218750e+01,-4.891797637939453125e+01,-5.739747619628906250e+01,-6.307305908203125000e+01,-6.310858917236328125e+01,-6.340153503417968750e+01,-6.347454833984375000e+01,-6.114203643798828125e+01,-5.837357330322265625e+01,-5.730435180664062500e+01,-5.822496032714843750e+01,-6.101164245605468750e+01,-6.415666961669921875e+01,-6.445574951171875000e+01,-6.293994140625000000e+01,-6.142174530029296875e+01,-6.087622070312500000e+01,-6.144358062744140625e+01,-6.244302368164062500e+01,-6.227841186523437500e+01,-6.096188354492187500e+01,-5.965090942382812500e+01,-5.806227111816406250e+01,-5.675765991210937500e+01,-5.667903900146484375e+01
-5.110062408447265625e+01,-5.092661666870117188e+01,-5.110195159912109375e+01,-5.155246734619140625e+01,-5.157215881347656250e+01,-4.921775817871093750e+01,-4.667438507080078125e+01,-4.579246520996093750e+01,-4.673030853271484375e+01,-4.877079010009765625e+01,-4.998039245605468750e+01,-5.026589965820312500e+01,-5.100179290771484375e+01,-5.170104980468750000e+01,-5.135363388061523438e+01,-5.084219360351562500e+01,-5.064402389526367188e+01,-5.057817840576171875e+01,-5.051830291748046875e+01,-5.010705566406250000e+01,-4.947097778320312500e+01,-4.941365051269531250e+01,-5.010606384277343750e+01,-5.029145050048828125e+01,-4.954643249511718750e+01,-4.929391479492187500e+01,-4.972876358032226562e+01,-4.945395660400390625e+01,-4.821735382080078125e+01,-4.746300506591796875e+01,-4.767476654052734375e+01,-4.858450317382812500e+01,-4.983919906616210938e+01,-5.088511276245117188e+01,-5.056177520751953125e+01,-4.761405181884765625e+01,-4.473973464965820312e+01,-4.372740554809570312e+01,-4.481231689453125000e+01,-4.781417846679687500e+01,-5.063369750976562500e+01,-5.058190155029296875e+01,-4.973220825195312500e+01,-4.846340179443359375e+01,-4.726585388183593750e+01,-4.680339813232421875e+01,-4.699811553955078125e+01,-4.730366516113281250e+01,-4.749217987060546875e+01,-4.734507751464843750e+01,-4.615872955322265625e+01,-4.476794433593750000e+01,-4.426903533935546875e+01,-4.490390777587890625e+01,-4.622443389892578125e+01,-4.710886383056640625e+01,-4.630216979980468750e+01,-4.434595108032226562e+01,-4.305785369873046875e+01,-4.316363525390625000e+01,-4.471269989013671875e+01,-4.697402954101562500e+01,-4.838795471191406250e+01,-4.892023086547851562e+01,-4.944744110107421875e+01,-4.705747222900390625e+01,-4.230139923095703125e+01,-3.933950042724609375e+01,-3.720404434204101562e+01,-3.579576873779296875e+01,-3.582199478149414062e+01,-3.778533172607421875e+01,-3.534979629516601562e+01,-2.961015319824218750e+01,-2.699517822265625000e+01,-2.677838516235351562e+01,-2.787506294250488281e+01,-2.848184204101562500e+01,-2.843397712707519531e+01,-2.942873382568359375e+01,-3.195401573181152344e+01,-3.641772842407226562e+01,-4.355295562744140625e+01,-5.153843688964843750e+01,-5.583670043945312500e+01,-5.178300476074218750e+01,-4.705592727661132812e+01,-4.466623687744140625e+01,-4.461060333251953125e+01,-4.693355560302734375e+01,-5.193264007568359375e+01,-5.880332183837890625e+01,-6.250903320312500000e+01,-6.288919830322265625e+01,-6.344737243652343750e+01,-6.373059082031250000e+01,-5.978382873535156250e+01,-5.574671554565429688e+01,-5.420444488525390625e+01,-5.510630035400390625e+01,-5.845334625244140625e+01,-6.319586944580078125e+01,-6.448062133789062500e+01,-6.315312194824218750e+01,-6.170452117919921875e+01,-6.151186370849609375e+01,-6.233058166503906250e+01,-6.236093902587890625e+01,-6.098978424072265625e+01,-5.972708892822265625e+01,-5.842168426513671875e+01,-5.647053527832031250e+01,-5.516913604736328125e+01,-5.544719696044921875e+01
-5.264614105224609375e+01,-5.228850555419921875e+01,-5.269788360595703125e+01,-5.274484252929687500e+01,-5.048984527587890625e+01,-4.666162872314453125e+01,-4.415914154052734375e+01,-4.366563034057617188e+01,-4.520834350585937500e+01,-4.842700958251953125e+01,-5.104129028320312500e+01,-5.159979629516601562e+01,-5.200894165039062500e+01,-5.218234252929687500e+01,-5.101347732543945312e+01,-4.934940338134765625e+01,-4.823545074462890625e+01,-4.789999008178710938e+01,-4.819474029541015625e+01,-4.849742126464843750e+01,-4.829133605957031250e+01,-4.799510192871093750e+01,-4.813708496093750000e+01,-4.823710632324218750e+01,-4.750837707519531250e+01,-4.671794128417968750e+01,-4.669845581054687500e+01,-4.732382583618164062e+01,-4.784228515625000000e+01,-4.808396911621093750e+01,-4.854590225219726562e+01,-4.907594299316406250e+01,-4.929227447509765625e+01,-4.927574920654296875e+01,-4.832372283935546875e+01,-4.387918090820312500e+01,-4.026058959960937500e+01,-3.909931182861328125e+01,-4.041507720947265625e+01,-4.435394668579101562e+01,-4.895386505126953125e+01,-4.888811492919921875e+01,-4.865025329589843750e+01,-4.870080566406250000e+01,-4.777150726318359375e+01,-4.626704788208007812e+01,-4.537276458740234375e+01,-4.538512802124023438e+01,-4.603210449218750000e+01,-4.642250061035156250e+01,-4.545204925537109375e+01,-4.400310516357421875e+01,-4.336483383178710938e+01,-4.397161102294921875e+01,-4.549800872802734375e+01,-4.671795654296875000e+01,-4.676690673828125000e+01,-4.637755584716796875e+01,-4.634303283691406250e+01,-4.665643692016601562e+01,-4.699798583984375000e+01,-4.691748046875000000e+01,-4.667798614501953125e+01,-4.698646545410156250e+01,-4.788816833496093750e+01,-4.443041992187500000e+01,-3.891959762573242188e+01,-3.570185852050781250e+01,-3.308538818359375000e+01,-3.122525596618652344e+01,-3.099914932250976562e+01,-3.299555587768554688e+01,-3.610055923461914062e+01,-3.362564468383789062e+01,-3.115942764282226562e+01,-3.073646163940429688e+01,-3.092750740051269531e+01,-3.034380912780761719e+01,-2.986934089660644531e+01,-3.075114822387695312e+01,-3.325078582763671875e+01,-3.768522262573242188e+01,-4.460350799560546875e+01,-5.306533050537109375e+01,-5.548743057250976562e+01,-5.133953094482421875e+01,-4.761243438720703125e+01,-4.593336486816406250e+01,-4.645724487304687500e+01,-4.936979293823242188e+01,-5.500440979003906250e+01,-6.170296478271484375e+01,-6.419783782958984375e+01,-6.404856872558593750e+01,-6.419166564941406250e+01,-6.333074951171875000e+01,-5.833552169799804688e+01,-5.424312591552734375e+01,-5.272723770141601562e+01,-5.368814086914062500e+01,-5.729657745361328125e+01,-6.250028991699218750e+01,-6.204518127441406250e+01,-6.023435211181640625e+01,-5.994274902343750000e+01,-6.119844818115234375e+01,-6.299507904052734375e+01,-6.299975585937500000e+01,-6.173229980468750000e+01,-6.095626068115234375e+01,-5.993933105468750000e+01,-5.761535263061523438e+01,-5.596778869628906250e+01,-5.612651824951171875e+01
-5.119747924804687500e+01,-5.125257873535156250e+01,-5.188997268676757812e+01,-5.206209564208984375e+01,-5.065280532836914062e+01,-4.786730575561523438e+01,-4.579380035400390625e+01,-4.538547515869140625e+01,-4.671580123901367188e+01,-4.909622192382812500e+01,-5.023842620849609375e+01,-4.960954666137695312e+01,-4.889773941040039062e+01,-4.873606109619140625e+01,-4.872667312622070312e+01,-4.813086700439453125e+01,-4.739857482910156250e+01,-4.740859222412109375e+01,-4.828899002075195312e+01,-4.883309936523437500e+01,-4.820647811889648438e+01,-4.765925979614257812e+01,-4.778191375732421875e+01,-4.796233367919921875e+01,-4.753681945800781250e+01,-4.692857360839843750e+01,-4.611935424804687500e+01,-4.530308151245117188e+01,-4.512097930908203125e+01,-4.576435852050781250e+01,-4.673491668701171875e+01,-4.724942779541015625e+01,-4.766979217529296875e+01,-4.865579986572265625e+01,-4.985116577148437500e+01,-4.784742736816406250e+01,-4.466014099121093750e+01,-4.340428161621093750e+01,-4.431059265136718750e+01,-4.686173248291015625e+01,-4.875587081909179688e+01,-4.872034454345703125e+01,-4.859952545166015625e+01,-4.834215545654296875e+01,-4.761627960205078125e+01,-4.655727386474609375e+01,-4.562596893310546875e+01,-4.519561004638671875e+01,-4.535869598388671875e+01,-4.576723480224609375e+01,-4.597417449951171875e+01,-4.626738357543945312e+01,-4.717783355712890625e+01,-4.825353240966796875e+01,-4.799015045166015625e+01,-4.687995529174804688e+01,-4.594225692749023438e+01,-4.528182983398437500e+01,-4.502616119384765625e+01,-4.540312957763671875e+01,-4.622742462158203125e+01,-4.676439666748046875e+01,-4.679972076416015625e+01,-4.700438690185546875e+01,-4.785650634765625000e+01,-4.704505157470703125e+01,-4.301317596435546875e+01,-3.820040130615234375e+01,-3.180707931518554688e+01,-2.796548843383789062e+01,-2.684490203857421875e+01,-2.831035423278808594e+01,-3.257196426391601562e+01,-3.612758636474609375e+01,-3.438585662841796875e+01,-3.309940338134765625e+01,-3.181741905212402344e+01,-3.078123474121093750e+01,-3.084736633300781250e+01,-3.237096786499023438e+01,-3.512320709228515625e+01,-3.911650085449218750e+01,-4.524985504150390625e+01,-5.235877227783203125e+01,-5.673308563232421875e+01,-5.498265075683593750e+01,-5.076912689208984375e+01,-4.819044494628906250e+01,-4.772617340087890625e+01,-4.945172119140625000e+01,-5.361096191406250000e+01,-5.988982391357421875e+01,-6.318019104003906250e+01,-6.297123718261718750e+01,-6.294880676269531250e+01,-6.216061401367187500e+01,-5.911420440673828125e+01,-5.616872787475585938e+01,-5.510915374755859375e+01,-5.625122070312500000e+01,-5.975344085693359375e+01,-6.415045928955078125e+01,-6.411319732666015625e+01,-6.265628814697265625e+01,-6.208509826660156250e+01,-6.230732727050781250e+01,-6.204750061035156250e+01,-6.128726196289062500e+01,-6.090177154541015625e+01,-6.074755859375000000e+01,-6.026741027832031250e+01,-5.922269439697265625e+01,-5.833458709716796875e+01,-5.834826660156250000e+01
-5.207635498046875000e+01,-5.207611846923828125e+01,-5.223599243164062500e+01,-5.205998992919921875e+01,-5.067458343505859375e+01,-4.827024841308593750e+01,-4.634413909912109375e+01,-4.584080505371093750e+01,-4.705710983276367188e+01,-4.968061065673828125e+01,-5.164837646484375000e+01,-5.160951232910156250e+01,-5.170111846923828125e+01,-5.236270523071289062e+01,-5.247926712036132812e+01,-5.175450134277343750e+01,-5.122557830810546875e+01,-5.114367675781250000e+01,-5.096165466308593750e+01,-5.020692825317382812e+01,-4.925636291503906250e+01,-4.874849700927734375e+01,-4.854194641113281250e+01,-4.824105072021484375e+01,-4.811032104492187500e+01,-4.832695770263671875e+01,-4.750174713134765625e+01,-4.571513366699218750e+01,-4.477880859375000000e+01,-4.517307281494140625e+01,-4.648171234130859375e+01,-4.790010833740234375e+01,-4.914543914794921875e+01,-5.035144805908203125e+01,-5.045699310302734375e+01,-4.813355255126953125e+01,-4.579910278320312500e+01,-4.510178375244140625e+01,-4.599537277221679688e+01,-4.751062774658203125e+01,-4.835319519042968750e+01,-4.885459899902343750e+01,-4.926496124267578125e+01,-4.924971389770507812e+01,-4.926911926269531250e+01,-4.890455627441406250e+01,-4.768668365478515625e+01,-4.619311523437500000e+01,-4.503238677978515625e+01,-4.452956008911132812e+01,-4.484596252441406250e+01,-4.582534027099609375e+01,-4.680772399902343750e+01,-4.704930114746093750e+01,-4.654804992675781250e+01,-4.587324523925781250e+01,-4.495935440063476562e+01,-4.415964508056640625e+01,-4.430160140991210938e+01,-4.586259460449218750e+01,-4.855260848999023438e+01,-5.027301025390625000e+01,-4.965818786621093750e+01,-4.823150634765625000e+01,-4.731762695312500000e+01,-4.713008499145507812e+01,-4.709869384765625000e+01,-4.163812637329101562e+01,-3.179481887817382812e+01,-2.683214187622070312e+01,-2.511807823181152344e+01,-2.608986091613769531e+01,-3.002834701538085938e+01,-3.739259338378906250e+01,-3.984678268432617188e+01,-3.773628234863281250e+01,-3.518943405151367188e+01,-3.324993133544921875e+01,-3.229904556274414062e+01,-3.240761184692382812e+01,-3.373078918457031250e+01,-3.681853866577148438e+01,-4.264488983154296875e+01,-5.122254180908203125e+01,-5.710466003417968750e+01,-5.535813903808593750e+01,-4.935099792480468750e+01,-4.563689422607421875e+01,-4.457738494873046875e+01,-4.603611373901367188e+01,-5.038909912109375000e+01,-5.829309844970703125e+01,-6.385254669189453125e+01,-6.394992065429687500e+01,-6.358894348144531250e+01,-6.262846374511718750e+01,-6.115719604492187500e+01,-5.992730712890625000e+01,-5.961189270019531250e+01,-6.039160156250000000e+01,-6.187807464599609375e+01,-6.302540588378906250e+01,-6.330272674560546875e+01,-6.328678894042968750e+01,-6.327483367919921875e+01,-6.325153350830078125e+01,-6.295234680175781250e+01,-6.231983184814453125e+01,-6.139288330078125000e+01,-6.028166198730468750e+01,-5.921011352539062500e+01,-5.789066314697265625e+01,-5.664112854003906250e+01,-5.631351470947265625e+01
-5.276205062866210938e+01,-5.320959472656250000e+01,-5.286904144287109375e+01,-5.172534179687500000e+01,-4.981892395019531250e+01,-4.725152587890625000e+01,-4.532009887695312500e+01,-4.496266937255859375e+01,-4.644405364990234375e+01,-4.916232299804687500e+01,-5.045404052734375000e+01,-5.018672561645507812e+01,-5.038088989257812500e+01,-5.059775924682617188e+01,-5.000813293457031250e+01,-4.930150985717773438e+01,-4.929882049560546875e+01,-4.950924682617187500e+01,-4.880437850952148438e+01,-4.782857513427734375e+01,-4.746169662475585938e+01,-4.779258728027343750e+01,-4.873104858398437500e+01,-5.016171264648437500e+01,-5.126955413818359375e+01,-5.098732757568359375e+01,-4.991500091552734375e+01,-4.857872772216796875e+01,-4.731790161132812500e+01,-4.662312316894531250e+01,-4.676548004150390625e+01,-4.771376800537109375e+01,-4.913122177124023438e+01,-5.038101959228515625e+01,-5.080908203125000000e+01,-5.038903045654296875e+01,-5.003083801269531250e+01,-5.021734237670898438e+01,-5.006494140625000000e+01,-4.899057006835937500e+01,-4.814590454101562500e+01,-4.802291107177734375e+01,-4.815867614746093750e+01,-4.820121002197265625e+01,-4.810457992553710938e+01,-4.762418365478515625e+01,-4.715976715087890625e+01,-4.721553421020507812e+01,-4.725153732299804688e+01,-4.676017761230468750e+01,-4.640675354003906250e+01,-4.675416564941406250e+01,-4.727969360351562500e+01,-4.693883514404296875e+01,-4.587198638916015625e+01,-4.486763763427734375e+01,-4.403246307373046875e+01,-4.357601928710937500e+01,-4.404391479492187500e+01,-4.579705810546875000e+01,-4.832029724121093750e+01,-4.941203308105468750e+01,-4.901769256591796875e+01,-4.866621780395507812e+01,-4.849102020263671875e+01,-4.823186492919921875e+01,-4.756493377685546875e+01,-4.236922454833984375e+01,-3.295401382446289062e+01,-2.808636093139648438e+01,-2.641705894470214844e+01,-2.741845703125000000e+01,-3.128241729736328125e+01,-3.680252838134765625e+01,-3.672652435302734375e+01,-3.583493804931640625e+01,-3.476922607421875000e+01,-3.321322250366210938e+01,-3.242337417602539062e+01,-3.307238006591796875e+01,-3.519911956787109375e+01,-3.891900253295898438e+01,-4.462826538085937500e+01,-5.159628295898437500e+01,-5.619638442993164062e+01,-5.405412673950195312e+01,-4.928821182250976562e+01,-4.675069427490234375e+01,-4.675280380249023438e+01,-4.940795135498046875e+01,-5.540264892578125000e+01,-6.331826019287109375e+01,-6.432265472412109375e+01,-6.358061981201171875e+01,-6.314582061767578125e+01,-6.208178710937500000e+01,-6.063313293457031250e+01,-6.014264678955078125e+01,-6.123079681396484375e+01,-6.373078155517578125e+01,-6.595102691650390625e+01,-6.589884948730468750e+01,-6.518348693847656250e+01,-6.505374908447265625e+01,-6.522335815429687500e+01,-6.453302764892578125e+01,-6.291225433349609375e+01,-6.146752929687500000e+01,-6.064814758300781250e+01,-6.035267639160156250e+01,-5.987147521972656250e+01,-5.827442932128906250e+01,-5.670955657958984375e+01,-5.632224273681640625e+01
-5.333902740478515625e+01,-5.439009094238281250e+01,-5.520520782470703125e+01,-5.376374053955078125e+01,-5.105657577514648438e+01,-4.888153839111328125e+01,-4.790682220458984375e+01,-4.825028228759765625e+01,-4.969321441650390625e+01,-5.136635589599609375e+01,-5.220328903198242188e+01,-5.236434555053710938e+01,-5.171726226806640625e+01,-5.044981765747070312e+01,-4.920516204833984375e+01,-4.838019180297851562e+01,-4.816869354248046875e+01,-4.855603027343750000e+01,-4.918663024902343750e+01,-4.935105133056640625e+01,-4.905136871337890625e+01,-4.902701568603515625e+01,-4.947534942626953125e+01,-4.968209838867187500e+01,-4.925663757324218750e+01,-4.902583312988281250e+01,-4.915313339233398438e+01,-4.860803222656250000e+01,-4.722947692871093750e+01,-4.635198211669921875e+01,-4.652164077758789062e+01,-4.731295013427734375e+01,-4.804943084716796875e+01,-4.872217941284179688e+01,-4.972145080566406250e+01,-5.053376770019531250e+01,-5.030611419677734375e+01,-4.944583129882812500e+01,-4.903769302368164062e+01,-4.950701141357421875e+01,-5.034089660644531250e+01,-5.031684494018554688e+01,-4.892929077148437500e+01,-4.760469055175781250e+01,-4.718802642822265625e+01,-4.740530395507812500e+01,-4.765468597412109375e+01,-4.779534149169921875e+01,-4.792966461181640625e+01,-4.792530822753906250e+01,-4.816410827636718750e+01,-4.886464691162109375e+01,-4.875348663330078125e+01,-4.733611679077148438e+01,-4.598656463623046875e+01,-4.536766052246093750e+01,-4.522832489013671875e+01,-4.520019912719726562e+01,-4.543075561523437500e+01,-4.639791107177734375e+01,-4.827886199951171875e+01,-5.014759063720703125e+01,-5.022736358642578125e+01,-4.920315551757812500e+01,-4.846325683593750000e+01,-4.782168960571289062e+01,-4.643872070312500000e+01,-4.095210266113281250e+01,-3.098295021057128906e+01,-2.582702064514160156e+01,-2.397633552551269531e+01,-2.482615852355957031e+01,-2.861404991149902344e+01,-3.544877243041992188e+01,-3.694268798828125000e+01,-3.484707641601562500e+01,-3.222484970092773438e+01,-3.039135551452636719e+01,-3.015760803222656250e+01,-3.162961578369140625e+01,-3.452441024780273438e+01,-3.853100585937500000e+01,-4.439746856689453125e+01,-5.201191711425781250e+01,-5.693746185302734375e+01,-5.640132904052734375e+01,-5.227582550048828125e+01,-4.945161437988281250e+01,-4.891711807250976562e+01,-5.074106979370117188e+01,-5.525786590576171875e+01,-6.197801971435546875e+01,-6.344016265869140625e+01,-6.204727172851562500e+01,-6.178295898437500000e+01,-6.186282348632812500e+01,-5.982485961914062500e+01,-5.707219696044921875e+01,-5.601514434814453125e+01,-5.712434387207031250e+01,-6.051863098144531250e+01,-6.454439544677734375e+01,-6.472866821289062500e+01,-6.425642395019531250e+01,-6.393134307861328125e+01,-6.280558013916015625e+01,-6.132676696777343750e+01,-6.050304412841796875e+01,-6.057730865478515625e+01,-6.124949645996093750e+01,-6.168110656738281250e+01,-6.112417602539062500e+01,-6.057070922851562500e+01,-6.061676025390625000e+01
-5.372468948364257812e+01,-5.452086639404296875e+01,-5.452337646484375000e+01,-5.331664276123046875e+01,-5.129331207275390625e+01,-4.913631439208984375e+01,-4.774156188964843750e+01,-4.739894485473632812e+01,-4.788734436035156250e+01,-4.873265075683593750e+01,-4.973716735839843750e+01,-5.089807891845703125e+01,-5.115819549560546875e+01,-5.053166198730468750e+01,-5.045098114013671875e+01,-5.104505920410156250e+01,-5.120952224731445312e+01,-5.091418838500976562e+01,-5.101257324218750000e+01,-5.111914062500000000e+01,-5.072097778320312500e+01,-5.039060974121093750e+01,-5.037534332275390625e+01,-5.013021087646484375e+01,-4.959751892089843750e+01,-4.933296203613281250e+01,-4.918309783935546875e+01,-4.844627380371093750e+01,-4.725340270996093750e+01,-4.654983520507812500e+01,-4.671130752563476562e+01,-4.750367736816406250e+01,-4.838558197021484375e+01,-4.915586090087890625e+01,-5.014449310302734375e+01,-5.094715118408203125e+01,-5.088592529296875000e+01,-5.025727844238281250e+01,-4.990678405761718750e+01,-5.002207946777343750e+01,-5.024511337280273438e+01,-5.001232910156250000e+01,-4.890918350219726562e+01,-4.707493591308593750e+01,-4.552199554443359375e+01,-4.496369934082031250e+01,-4.542602539062500000e+01,-4.646021652221679688e+01,-4.738850402832031250e+01,-4.800759124755859375e+01,-4.844724273681640625e+01,-4.863491058349609375e+01,-4.833564376831054688e+01,-4.766646957397460938e+01,-4.697904205322265625e+01,-4.643195343017578125e+01,-4.582450866699218750e+01,-4.515080261230468750e+01,-4.497914123535156250e+01,-4.566474914550781250e+01,-4.699346160888671875e+01,-4.837499618530273438e+01,-4.949496841430664062e+01,-5.004599761962890625e+01,-4.953095245361328125e+01,-4.843598175048828125e+01,-4.733466339111328125e+01,-4.085341644287109375e+01,-3.015538024902343750e+01,-2.489146995544433594e+01,-2.299068260192871094e+01,-2.379689979553222656e+01,-2.756120300292968750e+01,-3.517163467407226562e+01,-3.919153976440429688e+01,-3.836210250854492188e+01,-3.787699127197265625e+01,-3.655085372924804688e+01,-3.550886154174804688e+01,-3.589116287231445312e+01,-3.790541458129882812e+01,-4.156140136718750000e+01,-4.696244812011718750e+01,-5.382205963134765625e+01,-6.016664123535156250e+01,-5.731126403808593750e+01,-5.206125259399414062e+01,-4.902517700195312500e+01,-4.826721191406250000e+01,-4.972648620605468750e+01,-5.358318328857421875e+01,-5.965052795410156250e+01,-6.360770416259765625e+01,-6.384041595458984375e+01,-6.358258056640625000e+01,-6.308161163330078125e+01,-6.166263580322265625e+01,-5.963585662841796875e+01,-5.869236755371093750e+01,-5.957206726074218750e+01,-6.230024719238281250e+01,-6.512220764160156250e+01,-6.507555389404296875e+01,-6.468031311035156250e+01,-6.487721252441406250e+01,-6.435608673095703125e+01,-6.237613677978515625e+01,-6.051802062988281250e+01,-5.956201934814453125e+01,-5.947727966308593750e+01,-5.929477691650390625e+01,-5.764488983154296875e+01,-5.631533050537109375e+01,-5.675924682617187500e+01
-5.297797393798828125e+01,-5.289293289184570312e+01,-5.305240631103515625e+01,-5.299107360839843750e+01,-5.231412506103515625e+01,-5.082808303833007812e+01,-4.894983673095703125e+01,-4.772450256347656250e+01,-4.763221740722656250e+01,-4.836981582641601562e+01,-4.916506958007812500e+01,-4.983023834228515625e+01,-5.062141036987304688e+01,-5.114645004272460938e+01,-5.141103363037109375e+01,-5.191197204589843750e+01,-5.223815917968750000e+01,-5.193849182128906250e+01,-5.137977600097656250e+01,-5.044474411010742188e+01,-4.944529342651367188e+01,-4.920370483398437500e+01,-4.984654998779296875e+01,-5.047323989868164062e+01,-5.021406936645507812e+01,-4.955041503906250000e+01,-4.838446807861328125e+01,-4.700073242187500000e+01,-4.632479095458984375e+01,-4.670936584472656250e+01,-4.769705200195312500e+01,-4.843254852294921875e+01,-4.895091247558593750e+01,-4.972327423095703125e+01,-5.040373992919921875e+01,-5.018035125732421875e+01,-4.952924346923828125e+01,-4.918923950195312500e+01,-4.931985473632812500e+01,-4.978872680664062500e+01,-5.036952209472656250e+01,-5.076337432861328125e+01,-5.052697753906250000e+01,-4.956618881225585938e+01,-4.865644836425781250e+01,-4.857343292236328125e+01,-4.926668548583984375e+01,-4.965170288085937500e+01,-4.892006683349609375e+01,-4.789490509033203125e+01,-4.730162429809570312e+01,-4.705442047119140625e+01,-4.683311462402343750e+01,-4.665061950683593750e+01,-4.675144195556640625e+01,-4.718324661254882812e+01,-4.735502624511718750e+01,-4.670325469970703125e+01,-4.598472595214843750e+01,-4.603705596923828125e+01,-4.683857727050781250e+01,-4.786340332031250000e+01,-4.897127151489257812e+01,-5.043683624267578125e+01,-5.160332489013671875e+01,-5.134061431884765625e+01,-5.026449584960937500e+01,-4.305607604980468750e+01,-3.345459365844726562e+01,-2.872649192810058594e+01,-2.718033409118652344e+01,-2.831169891357421875e+01,-3.237038421630859375e+01,-3.811558532714843750e+01,-3.772448730468750000e+01,-3.697505569458007812e+01,-3.657900238037109375e+01,-3.526883697509765625e+01,-3.420599746704101562e+01,-3.460481262207031250e+01,-3.677867889404296875e+01,-4.100016784667968750e+01,-4.746171951293945312e+01,-5.410562133789062500e+01,-5.831787872314453125e+01,-5.811185455322265625e+01,-5.631957244873046875e+01,-5.445572662353515625e+01,-5.376729583740234375e+01,-5.484248352050781250e+01,-5.793472290039062500e+01,-6.265364074707031250e+01,-6.578447723388671875e+01,-6.612365722656250000e+01,-6.616104125976562500e+01,-6.527117156982421875e+01,-6.219992828369140625e+01,-5.912631225585937500e+01,-5.792155075073242188e+01,-5.891474914550781250e+01,-6.223126983642578125e+01,-6.648308563232421875e+01,-6.678901672363281250e+01,-6.591646575927734375e+01,-6.488529205322265625e+01,-6.333220672607421875e+01,-6.200362396240234375e+01,-6.177758026123046875e+01,-6.243615722656250000e+01,-6.250834655761718750e+01,-6.026434326171875000e+01,-5.673047637939453125e+01,-5.469528961181640625e+01,-5.479138183593750000e+01
-5.394673156738281250e+01,-5.343128967285156250e+01,-5.389912414550781250e+01,-5.438021850585937500e+01,-5.289344787597656250e+01,-5.023566818237304688e+01,-4.850284576416015625e+01,-4.809482192993164062e+01,-4.866012573242187500e+01,-4.945178985595703125e+01,-4.993067932128906250e+01,-5.022735214233398438e+01,-4.995032119750976562e+01,-4.930929946899414062e+01,-4.927530670166015625e+01,-5.027812957763671875e+01,-5.182313537597656250e+01,-5.264503479003906250e+01,-5.237278747558593750e+01,-5.144662857055664062e+01,-5.054349517822265625e+01,-5.015041351318359375e+01,-5.026851654052734375e+01,-5.073796081542968750e+01,-5.120318603515625000e+01,-5.107303619384765625e+01,-4.986969757080078125e+01,-4.825797271728515625e+01,-4.716623687744140625e+01,-4.679420089721679688e+01,-4.695275878906250000e+01,-4.754205322265625000e+01,-4.879272460937500000e+01,-5.076403808593750000e+01,-5.244113540649414062e+01,-5.237746047973632812e+01,-5.118418884277343750e+01,-5.015634918212890625e+01,-4.992671966552734375e+01,-5.054576110839843750e+01,-5.159041595458984375e+01,-5.185593414306640625e+01,-5.037732696533203125e+01,-4.876859283447265625e+01,-4.812601089477539062e+01,-4.824709701538085938e+01,-4.870635986328125000e+01,-4.951026153564453125e+01,-5.067632293701171875e+01,-5.074966430664062500e+01,-4.913775634765625000e+01,-4.776136016845703125e+01,-4.739743041992187500e+01,-4.798202133178710938e+01,-4.906204223632812500e+01,-4.985999298095703125e+01,-4.876266479492187500e+01,-4.651834869384765625e+01,-4.543151473999023438e+01,-4.608355712890625000e+01,-4.826874542236328125e+01,-5.072938537597656250e+01,-5.197198486328125000e+01,-5.277574157714843750e+01,-5.340301513671875000e+01,-5.249080276489257812e+01,-4.957312774658203125e+01,-4.248990631103515625e+01,-3.214665985107421875e+01,-2.701583671569824219e+01,-2.521301841735839844e+01,-2.612389945983886719e+01,-2.986344337463378906e+01,-3.441732025146484375e+01,-3.353503417968750000e+01,-3.309892272949218750e+01,-3.363047790527343750e+01,-3.389122390747070312e+01,-3.418895721435546875e+01,-3.558464813232421875e+01,-3.803995513916015625e+01,-4.165476608276367188e+01,-4.758198547363281250e+01,-5.415137100219726562e+01,-5.625594329833984375e+01,-5.574355316162109375e+01,-5.260279846191406250e+01,-5.022074127197265625e+01,-4.999269866943359375e+01,-5.215738677978515625e+01,-5.708727264404296875e+01,-6.364120483398437500e+01,-6.519568634033203125e+01,-6.404231262207031250e+01,-6.314624786376953125e+01,-6.187668609619140625e+01,-5.807104492187500000e+01,-5.442864990234375000e+01,-5.296269989013671875e+01,-5.384599304199218750e+01,-5.731818389892578125e+01,-6.336962890625000000e+01,-6.678997039794921875e+01,-6.655799865722656250e+01,-6.552292633056640625e+01,-6.440550231933593750e+01,-6.364515686035156250e+01,-6.345075988769531250e+01,-6.355615997314453125e+01,-6.294056701660156250e+01,-5.963296508789062500e+01,-5.518775177001953125e+01,-5.272795867919921875e+01,-5.254224395751953125e+01
-5.366105651855468750e+01,-5.398502349853515625e+01,-5.416156768798828125e+01,-5.411281585693359375e+01,-5.382202148437500000e+01,-5.351068878173828125e+01,-5.340754699707031250e+01,-5.300082778930664062e+01,-5.200474548339843750e+01,-5.105192565917968750e+01,-5.087856292724609375e+01,-5.125234222412109375e+01,-5.022733306884765625e+01,-4.837479400634765625e+01,-4.771051406860351562e+01,-4.853617477416992188e+01,-4.991742706298828125e+01,-5.066058349609375000e+01,-5.125157165527343750e+01,-5.148894500732421875e+01,-5.075461959838867188e+01,-5.037464141845703125e+01,-5.112018203735351562e+01,-5.226797485351562500e+01,-5.266266632080078125e+01,-5.262399291992187500e+01,-5.231159210205078125e+01,-5.132110595703125000e+01,-5.003239440917968750e+01,-4.852140808105468750e+01,-4.734650421142578125e+01,-4.725559234619140625e+01,-4.837393569946289062e+01,-5.000738906860351562e+01,-5.091929244995117188e+01,-5.120395660400390625e+01,-5.120558929443359375e+01,-5.100191116333007812e+01,-5.118542480468750000e+01,-5.210210418701171875e+01,-5.338854217529296875e+01,-5.348095703125000000e+01,-5.169655609130859375e+01,-4.993019866943359375e+01,-4.910141754150390625e+01,-4.875586700439453125e+01,-4.826978302001953125e+01,-4.803811645507812500e+01,-4.869706726074218750e+01,-4.945307922363281250e+01,-4.865350723266601562e+01,-4.767589569091796875e+01,-4.783712768554687500e+01,-4.884126663208007812e+01,-4.951966094970703125e+01,-4.913829040527343750e+01,-4.724375915527343750e+01,-4.490970611572265625e+01,-4.389167785644531250e+01,-4.475311660766601562e+01,-4.768177032470703125e+01,-5.198579406738281250e+01,-5.356401824951171875e+01,-5.272135162353515625e+01,-5.203126525878906250e+01,-5.101726531982421875e+01,-4.927717590332031250e+01,-4.382884216308593750e+01,-3.390910720825195312e+01,-2.883764648437500000e+01,-2.706383323669433594e+01,-2.799699020385742188e+01,-3.176894760131835938e+01,-3.638690185546875000e+01,-3.537535858154296875e+01,-3.447985076904296875e+01,-3.409848785400390625e+01,-3.348008346557617188e+01,-3.314826202392578125e+01,-3.385647964477539062e+01,-3.581963348388671875e+01,-3.953607940673828125e+01,-4.617474365234375000e+01,-5.382048416137695312e+01,-5.654952239990234375e+01,-5.661212158203125000e+01,-5.389994049072265625e+01,-5.183744049072265625e+01,-5.190188217163085938e+01,-5.440074157714843750e+01,-5.981611633300781250e+01,-6.714148712158203125e+01,-6.954293060302734375e+01,-6.823719024658203125e+01,-6.592035675048828125e+01,-6.379159545898437500e+01,-6.146373748779296875e+01,-5.952142333984375000e+01,-5.902714538574218750e+01,-6.037541961669921875e+01,-6.349774932861328125e+01,-6.691472625732421875e+01,-6.831224060058593750e+01,-6.791419219970703125e+01,-6.589178466796875000e+01,-6.416134643554687500e+01,-6.312973022460937500e+01,-6.232671356201171875e+01,-6.196910095214843750e+01,-6.244355773925781250e+01,-6.263907623291015625e+01,-6.071353912353515625e+01,-5.904482269287109375e+01,-5.915504455566406250e+01
-5.580807495117187500e+01,-5.432719039916992188e+01,-5.285538482666015625e+01,-5.225466918945312500e+01,-5.239847564697265625e+01,-5.179220199584960938e+01,-5.027194213867187500e+01,-4.952604675292968750e+01,-5.012726593017578125e+01,-5.105243682861328125e+01,-5.074642944335937500e+01,-5.010384368896484375e+01,-4.980411529541015625e+01,-4.945573425292968750e+01,-4.921493530273437500e+01,-4.961453247070312500e+01,-5.071045684814453125e+01,-5.194276428222656250e+01,-5.224427032470703125e+01,-5.103804016113281250e+01,-4.980365753173828125e+01,-4.955510711669921875e+01,-4.999796295166015625e+01,-5.044981384277343750e+01,-5.069448089599609375e+01,-5.061135864257812500e+01,-4.953708267211914062e+01,-4.808672714233398438e+01,-4.707556152343750000e+01,-4.679836273193359375e+01,-4.745597839355468750e+01,-4.896012878417968750e+01,-5.052241897583007812e+01,-5.112016296386718750e+01,-5.125356674194335938e+01,-5.122912979125976562e+01,-5.108422088623046875e+01,-5.141231536865234375e+01,-5.243190002441406250e+01,-5.340072631835937500e+01,-5.315621185302734375e+01,-5.200695037841796875e+01,-5.082192993164062500e+01,-4.985448455810546875e+01,-4.897750854492187500e+01,-4.795288085937500000e+01,-4.696460723876953125e+01,-4.660436248779296875e+01,-4.707863616943359375e+01,-4.747014617919921875e+01,-4.652954483032226562e+01,-4.549739456176757812e+01,-4.562367248535156250e+01,-4.684037017822265625e+01,-4.797720336914062500e+01,-4.797521209716796875e+01,-4.660306549072265625e+01,-4.478831481933593750e+01,-4.408144378662109375e+01,-4.515357208251953125e+01,-4.818448638916015625e+01,-5.207421112060546875e+01,-5.340476989746093750e+01,-5.241965484619140625e+01,-5.105968093872070312e+01,-5.024188995361328125e+01,-4.998874664306640625e+01,-4.631700897216796875e+01,-3.804076004028320312e+01,-3.334045410156250000e+01,-3.168648529052734375e+01,-3.262984466552734375e+01,-3.578533554077148438e+01,-3.635141754150390625e+01,-3.403952026367187500e+01,-3.344639587402343750e+01,-3.376241683959960938e+01,-3.334446716308593750e+01,-3.270517349243164062e+01,-3.326473617553710938e+01,-3.534778976440429688e+01,-3.906687164306640625e+01,-4.488710021972656250e+01,-5.229943084716796875e+01,-5.878108215332031250e+01,-5.917176055908203125e+01,-5.604330444335937500e+01,-5.423442840576171875e+01,-5.463922119140625000e+01,-5.755903625488281250e+01,-6.322475433349609375e+01,-6.772022247314453125e+01,-6.797156524658203125e+01,-6.769062805175781250e+01,-6.740586853027343750e+01,-6.588059234619140625e+01,-6.328887176513671875e+01,-6.172831726074218750e+01,-6.205549621582031250e+01,-6.439664459228515625e+01,-6.784665679931640625e+01,-6.888082885742187500e+01,-6.762063598632812500e+01,-6.624372100830078125e+01,-6.550038909912109375e+01,-6.526068115234375000e+01,-6.402617645263671875e+01,-6.201310729980468750e+01,-6.094319915771484375e+01,-6.111090087890625000e+01,-6.073623657226562500e+01,-5.757581710815429688e+01,-5.517626571655273438e+01,-5.496328735351562500e+01
-5.283688354492187500e+01,-5.356209564208984375e+01,-5.389072036743164062e+01,-5.320970916748046875e+01,-5.170843505859375000e+01,-4.834268188476562500e+01,-4.554796600341796875e+01,-4.468364715576171875e+01,-4.587128448486328125e+01,-4.873316192626953125e+01,-5.115823364257812500e+01,-5.167232513427734375e+01,-5.200330352783203125e+01,-5.204975128173828125e+01,-5.102825164794921875e+01,-4.995295715332031250e+01,-4.989013671875000000e+01,-5.078462982177734375e+01,-5.137239074707031250e+01,-5.037532806396484375e+01,-4.914612579345703125e+01,-4.883804321289062500e+01,-4.928926849365234375e+01,-5.001858520507812500e+01,-5.074053573608398438e+01,-5.060530471801757812e+01,-4.876398468017578125e+01,-4.710283660888671875e+01,-4.676304626464843750e+01,-4.759180450439453125e+01,-4.896324920654296875e+01,-5.015714263916015625e+01,-5.103162384033203125e+01,-5.134527587890625000e+01,-5.100810241699218750e+01,-5.036486816406250000e+01,-4.978653717041015625e+01,-4.957441711425781250e+01,-4.961285400390625000e+01,-4.966909027099609375e+01,-4.984529113769531250e+01,-5.036355590820312500e+01,-5.089594268798828125e+01,-5.090312957763671875e+01,-5.021238327026367188e+01,-4.892942810058593750e+01,-4.780942916870117188e+01,-4.746913909912109375e+01,-4.749964904785156250e+01,-4.624656677246093750e+01,-4.382810974121093750e+01,-4.243173980712890625e+01,-4.276570129394531250e+01,-4.458006668090820312e+01,-4.627636337280273438e+01,-4.636857604980468750e+01,-4.592551422119140625e+01,-4.513119506835937500e+01,-4.456868743896484375e+01,-4.503366851806640625e+01,-4.670735168457031250e+01,-4.895975494384765625e+01,-5.103749084472656250e+01,-5.290231323242187500e+01,-5.391507720947265625e+01,-5.315092468261718750e+01,-5.054898071289062500e+01,-4.458933258056640625e+01,-3.697842407226562500e+01,-3.278874206542968750e+01,-3.146449279785156250e+01,-3.270146179199218750e+01,-3.634115600585937500e+01,-3.759773254394531250e+01,-3.525924301147460938e+01,-3.431931304931640625e+01,-3.323500061035156250e+01,-3.150164031982421875e+01,-3.071646308898925781e+01,-3.167920303344726562e+01,-3.440952301025390625e+01,-3.864961242675781250e+01,-4.462575531005859375e+01,-5.250003814697265625e+01,-5.825185394287109375e+01,-5.887835693359375000e+01,-5.720593261718750000e+01,-5.502636718750000000e+01,-5.433209991455078125e+01,-5.578177642822265625e+01,-5.979447937011718750e+01,-6.604872131347656250e+01,-6.855032348632812500e+01,-6.814384460449218750e+01,-6.693021392822265625e+01,-6.447471618652343750e+01,-6.168988800048828125e+01,-5.941809844970703125e+01,-5.859731292724609375e+01,-5.963471984863281250e+01,-6.256038665771484375e+01,-6.565967559814453125e+01,-6.574800872802734375e+01,-6.556049346923828125e+01,-6.630606079101562500e+01,-6.733079528808593750e+01,-6.656233215332031250e+01,-6.459056854248046875e+01,-6.331074523925781250e+01,-6.215795135498046875e+01,-5.700598144531250000e+01,-5.168652343750000000e+01,-4.921971893310546875e+01,-4.936267852783203125e+01
-5.263581848144531250e+01,-5.367366790771484375e+01,-5.477536010742187500e+01,-5.450569152832031250e+01,-5.293371582031250000e+01,-5.012516784667968750e+01,-4.744467544555664062e+01,-4.616602325439453125e+01,-4.657314682006835938e+01,-4.847517776489257812e+01,-5.071524047851562500e+01,-5.153852081298828125e+01,-5.146845245361328125e+01,-5.151175308227539062e+01,-5.160493469238281250e+01,-5.136961364746093750e+01,-5.109948730468750000e+01,-5.116131591796875000e+01,-5.071131134033203125e+01,-4.802600860595703125e+01,-4.563254928588867188e+01,-4.507224273681640625e+01,-4.627908325195312500e+01,-4.830342102050781250e+01,-4.926633453369140625e+01,-4.918366241455078125e+01,-4.851005554199218750e+01,-4.780953979492187500e+01,-4.799194335937500000e+01,-4.915892791748046875e+01,-5.050128555297851562e+01,-5.082720947265625000e+01,-5.053134155273437500e+01,-5.038626098632812500e+01,-5.043585968017578125e+01,-5.002164840698242188e+01,-4.887215423583984375e+01,-4.806162261962890625e+01,-4.829336929321289062e+01,-4.937738037109375000e+01,-5.020704650878906250e+01,-4.992185211181640625e+01,-4.886711120605468750e+01,-4.790551757812500000e+01,-4.760649490356445312e+01,-4.752509307861328125e+01,-4.727560806274414062e+01,-4.742511367797851562e+01,-4.816651153564453125e+01,-4.758554840087890625e+01,-4.516905212402343750e+01,-4.343146514892578125e+01,-4.300995635986328125e+01,-4.372359466552734375e+01,-4.494440460205078125e+01,-4.576421356201171875e+01,-4.580731201171875000e+01,-4.537106323242187500e+01,-4.518254470825195312e+01,-4.568651962280273438e+01,-4.709825897216796875e+01,-4.913498687744140625e+01,-5.104232406616210938e+01,-5.209646606445312500e+01,-5.218686676025390625e+01,-5.121991729736328125e+01,-4.896861267089843750e+01,-4.475734710693359375e+01,-3.779087066650390625e+01,-3.349472808837890625e+01,-3.200824356079101562e+01,-3.306774902343750000e+01,-3.672912597656250000e+01,-3.992811584472656250e+01,-3.828256988525390625e+01,-3.650081634521484375e+01,-3.333300399780273438e+01,-3.026472473144531250e+01,-2.877132034301757812e+01,-2.911603546142578125e+01,-3.134544372558593750e+01,-3.567510223388671875e+01,-4.297420120239257812e+01,-5.364357757568359375e+01,-5.799945068359375000e+01,-5.840693283081054688e+01,-5.793482208251953125e+01,-5.666101074218750000e+01,-5.621825790405273438e+01,-5.755170440673828125e+01,-6.100901794433593750e+01,-6.551644134521484375e+01,-6.637456512451171875e+01,-6.522536468505859375e+01,-6.406467437744140625e+01,-6.305142211914062500e+01,-6.115047454833984375e+01,-5.863215255737304688e+01,-5.742095947265625000e+01,-5.821756362915039062e+01,-6.118630218505859375e+01,-6.503914642333984375e+01,-6.559746551513671875e+01,-6.508309173583984375e+01,-6.556081390380859375e+01,-6.658834075927734375e+01,-6.595439910888671875e+01,-6.433800506591796875e+01,-6.315206146240234375e+01,-6.194403839111328125e+01,-5.696792602539062500e+01,-5.162427902221679688e+01,-4.908753967285156250e+01,-4.914334869384765625e+01
-5.433438873291015625e+01,-5.466954803466796875e+01,-5.453064727783203125e+01,-5.382979583740234375e+01,-5.262450790405273438e+01,-4.945045471191406250e+01,-4.653871154785156250e+01,-4.548966217041015625e+01,-4.645741271972656250e+01,-4.911785888671875000e+01,-5.151292419433593750e+01,-5.160682678222656250e+01,-5.114719009399414062e+01,-5.122896575927734375e+01,-5.196041870117187500e+01,-5.280613708496093750e+01,-5.283496475219726562e+01,-5.214077758789062500e+01,-5.122451019287109375e+01,-4.931624984741210938e+01,-4.746309661865234375e+01,-4.686914443969726562e+01,-4.718243408203125000e+01,-4.731107330322265625e+01,-4.723143386840820312e+01,-4.762823486328125000e+01,-4.767469024658203125e+01,-4.699308013916015625e+01,-4.688810729980468750e+01,-4.797750854492187500e+01,-4.989775085449218750e+01,-5.144104003906250000e+01,-5.209182357788085938e+01,-5.245832061767578125e+01,-5.265151977539062500e+01,-5.125256347656250000e+01,-4.883011627197265625e+01,-4.748367309570312500e+01,-4.776420593261718750e+01,-4.937956237792968750e+01,-5.090129852294921875e+01,-5.080103302001953125e+01,-4.986770629882812500e+01,-4.926313018798828125e+01,-4.945757293701171875e+01,-4.991876220703125000e+01,-4.962310791015625000e+01,-4.882984924316406250e+01,-4.840001678466796875e+01,-4.815024566650390625e+01,-4.754692840576171875e+01,-4.664805603027343750e+01,-4.602125167846679688e+01,-4.624354934692382812e+01,-4.748474121093750000e+01,-4.888861465454101562e+01,-4.818595123291015625e+01,-4.620011901855468750e+01,-4.517718505859375000e+01,-4.562381744384765625e+01,-4.725351715087890625e+01,-4.914659881591796875e+01,-5.057008361816406250e+01,-5.156423950195312500e+01,-5.133325195312500000e+01,-5.003086853027343750e+01,-4.897977828979492188e+01,-4.286272430419921875e+01,-3.349162673950195312e+01,-2.877243232727050781e+01,-2.721418190002441406e+01,-2.831837654113769531e+01,-3.206509780883789062e+01,-3.469891738891601562e+01,-3.279551696777343750e+01,-3.188159942626953125e+01,-3.055518341064453125e+01,-2.873385429382324219e+01,-2.819753074645996094e+01,-2.972217750549316406e+01,-3.348900222778320312e+01,-3.917843627929687500e+01,-4.621193695068359375e+01,-5.431227111816406250e+01,-5.802539062500000000e+01,-5.919972991943359375e+01,-5.987105560302734375e+01,-6.021909332275390625e+01,-6.072292327880859375e+01,-6.207744598388671875e+01,-6.441136169433593750e+01,-6.677227783203125000e+01,-6.788886260986328125e+01,-6.743652343750000000e+01,-6.615828704833984375e+01,-6.430416107177734375e+01,-6.064926147460937500e+01,-5.739717102050781250e+01,-5.618701171875000000e+01,-5.723220062255859375e+01,-6.058791351318359375e+01,-6.474836730957031250e+01,-6.516151428222656250e+01,-6.456826019287109375e+01,-6.478562164306640625e+01,-6.576762390136718750e+01,-6.614099121093750000e+01,-6.515833282470703125e+01,-6.409678649902343750e+01,-6.269486236572265625e+01,-5.564598846435546875e+01,-4.980918502807617188e+01,-4.725032806396484375e+01,-4.738169860839843750e+01
-5.482276916503906250e+01,-5.494338989257812500e+01,-5.389075469970703125e+01,-5.241847229003906250e+01,-5.079950714111328125e+01,-4.809485626220703125e+01,-4.570716476440429688e+01,-4.484172058105468750e+01,-4.570687103271484375e+01,-4.805443572998046875e+01,-5.062960815429687500e+01,-5.176962280273437500e+01,-5.197097778320312500e+01,-5.226562118530273438e+01,-5.251693725585937500e+01,-5.199387359619140625e+01,-5.091465759277343750e+01,-5.002482986450195312e+01,-4.976110839843750000e+01,-4.996097183227539062e+01,-5.027658081054687500e+01,-5.047738647460937500e+01,-4.970926666259765625e+01,-4.854290008544921875e+01,-4.829644775390625000e+01,-4.898608779907226562e+01,-4.926432418823242188e+01,-4.860406875610351562e+01,-4.821844100952148438e+01,-4.812038421630859375e+01,-4.795708465576171875e+01,-4.818566894531250000e+01,-4.931253814697265625e+01,-5.076409149169921875e+01,-5.089190292358398438e+01,-5.010150909423828125e+01,-4.965043640136718750e+01,-4.985937118530273438e+01,-5.052111434936523438e+01,-5.076580047607421875e+01,-4.985706329345703125e+01,-4.856996536254882812e+01,-4.796884536743164062e+01,-4.831699371337890625e+01,-4.918545532226562500e+01,-4.956373977661132812e+01,-4.897085571289062500e+01,-4.793000793457031250e+01,-4.715269088745117188e+01,-4.684670257568359375e+01,-4.648545074462890625e+01,-4.598226928710937500e+01,-4.596430206298828125e+01,-4.668234252929687500e+01,-4.768601989746093750e+01,-4.829023742675781250e+01,-4.736529541015625000e+01,-4.523429107666015625e+01,-4.405509948730468750e+01,-4.460721588134765625e+01,-4.667171478271484375e+01,-4.892887115478515625e+01,-5.000507354736328125e+01,-5.063946533203125000e+01,-5.044190216064453125e+01,-4.929522705078125000e+01,-4.832336425781250000e+01,-4.272249603271484375e+01,-3.210024261474609375e+01,-2.682156181335449219e+01,-2.490776443481445312e+01,-2.569369125366210938e+01,-2.896647834777832031e+01,-3.082913208007812500e+01,-2.893437385559082031e+01,-2.847974967956542969e+01,-2.855530548095703125e+01,-2.763014602661132812e+01,-2.716664886474609375e+01,-2.866057968139648438e+01,-3.261052703857421875e+01,-3.929534149169921875e+01,-4.780635833740234375e+01,-5.384980010986328125e+01,-5.880107116699218750e+01,-6.177020263671875000e+01,-5.894086456298828125e+01,-5.542459106445312500e+01,-5.401739501953125000e+01,-5.483274078369140625e+01,-5.802865600585937500e+01,-6.369111633300781250e+01,-6.834670257568359375e+01,-6.767635345458984375e+01,-6.560998535156250000e+01,-6.356221771240234375e+01,-6.100776672363281250e+01,-5.905882263183593750e+01,-5.873730468750000000e+01,-6.023321533203125000e+01,-6.304515075683593750e+01,-6.502647399902343750e+01,-6.500801086425781250e+01,-6.451250457763671875e+01,-6.465834045410156250e+01,-6.539199066162109375e+01,-6.516817474365234375e+01,-6.399226379394531250e+01,-6.320322418212890625e+01,-6.250691986083984375e+01,-5.505164718627929688e+01,-4.899745941162109375e+01,-4.640211486816406250e+01,-4.655048370361328125e+01
-5.334165191650390625e+01,-5.290842437744140625e+01,-5.216320800781250000e+01,-5.133988189697265625e+01,-5.046786880493164062e+01,-4.880118560791015625e+01,-4.714683532714843750e+01,-4.667484283447265625e+01,-4.772922515869140625e+01,-4.982741165161132812e+01,-5.103389739990234375e+01,-5.078817367553710938e+01,-5.070699310302734375e+01,-5.120209503173828125e+01,-5.154121398925781250e+01,-5.132399749755859375e+01,-5.093847274780273438e+01,-5.035676956176757812e+01,-4.980008697509765625e+01,-4.943153381347656250e+01,-4.908812713623046875e+01,-4.904878234863281250e+01,-4.979404449462890625e+01,-5.081283187866210938e+01,-5.005900192260742188e+01,-4.848181915283203125e+01,-4.771687316894531250e+01,-4.735864257812500000e+01,-4.679697036743164062e+01,-4.654108428955078125e+01,-4.702749633789062500e+01,-4.774523162841796875e+01,-4.823892593383789062e+01,-4.899283981323242188e+01,-5.005727767944335938e+01,-5.009101867675781250e+01,-4.906154632568359375e+01,-4.857110977172851562e+01,-4.918077468872070312e+01,-5.035939788818359375e+01,-5.093624114990234375e+01,-5.055434417724609375e+01,-4.935449981689453125e+01,-4.819478607177734375e+01,-4.772595977783203125e+01,-4.763334655761718750e+01,-4.769602966308593750e+01,-4.802999114990234375e+01,-4.819177246093750000e+01,-4.747940826416015625e+01,-4.648592376708984375e+01,-4.611625671386718750e+01,-4.653541946411132812e+01,-4.747119140625000000e+01,-4.847072601318359375e+01,-4.909609222412109375e+01,-4.806575775146484375e+01,-4.577344512939453125e+01,-4.454635238647460938e+01,-4.505436706542968750e+01,-4.706022644042968750e+01,-4.908599853515625000e+01,-4.955039978027343750e+01,-4.971724700927734375e+01,-5.020695495605468750e+01,-4.873900604248046875e+01,-4.503178405761718750e+01,-4.187044525146484375e+01,-3.627559661865234375e+01,-3.179175376892089844e+01,-2.995814704895019531e+01,-3.065666198730468750e+01,-3.331085586547851562e+01,-3.314130401611328125e+01,-3.090985107421875000e+01,-3.019647026062011719e+01,-2.957565689086914062e+01,-2.848604393005371094e+01,-2.834990310668945312e+01,-3.010229110717773438e+01,-3.380873107910156250e+01,-3.889839935302734375e+01,-4.575517272949218750e+01,-5.489883422851562500e+01,-6.017101287841796875e+01,-6.036357879638671875e+01,-5.710506439208984375e+01,-5.435187149047851562e+01,-5.379103851318359375e+01,-5.557078552246093750e+01,-5.992019653320312500e+01,-6.587071990966796875e+01,-6.740482330322265625e+01,-6.614059448242187500e+01,-6.522438812255859375e+01,-6.454003143310546875e+01,-6.262632751464843750e+01,-6.060415649414062500e+01,-6.014333343505859375e+01,-6.163807678222656250e+01,-6.465232086181640625e+01,-6.665848541259765625e+01,-6.639876556396484375e+01,-6.575581359863281250e+01,-6.516168975830078125e+01,-6.458652496337890625e+01,-6.362886047363281250e+01,-6.239328765869140625e+01,-6.144625091552734375e+01,-6.069784545898437500e+01,-5.766488647460937500e+01,-5.341106414794921875e+01,-5.123038482666015625e+01,-5.145898437500000000e+01
