-3.817731857299804688e+01,-4.139794158935546875e+01,-4.505876159667968750e+01,-4.860640716552734375e+01,-5.257372283935546875e+01,-5.653014373779296875e+01,-5.832019805908203125e+01,-5.974331665039062500e+01,-6.138040924072265625e+01,-6.175902557373046875e+01,-6.139724731445312500e+01,-6.168631744384765625e+01,-6.300915527343750000e+01,-6.461792755126953125e+01,-6.497371673583984375e+01,-6.336296081542968750e+01,-6.067865753173828125e+01,-5.872273254394531250e+01,-5.797352600097656250e+01,-5.790456390380859375e+01,-5.772716522216796875e+01,-5.758708190917968750e+01,-5.823859405517578125e+01,-5.968688964843750000e+01,-6.033989715576171875e+01,-5.879135131835937500e+01,-5.737337493896484375e+01,-5.746172332763671875e+01,-5.908996963500976562e+01,-6.141642761230468750e+01,-6.268799591064453125e+01,-6.277270507812500000e+01,-6.184156036376953125e+01,-6.063072967529296875e+01,-6.022632598876953125e+01,-6.055442810058593750e+01,-6.004347991943359375e+01,-5.849231719970703125e+01,-5.739406585693359375e+01,-5.739870452880859375e+01,-5.851157760620117188e+01,-6.048909759521484375e+01,-6.257373809814453125e+01,-6.357293701171875000e+01,-6.390552520751953125e+01,-6.422977447509765625e+01,-6.445728302001953125e+01,-6.444966888427734375e+01,-6.458316802978515625e+01,-6.506738281250000000e+01,-6.522080230712890625e+01,-6.424811553955078125e+01,-6.298269653320312500e+01,-6.241117095947265625e+01,-6.277749633789062500e+01,-6.388417053222656250e+01,-6.487391662597656250e+01,-6.460104370117187500e+01,-6.367591094970703125e+01,-6.306355285644531250e+01,-6.298883056640625000e+01,-6.329134368896484375e+01,-6.379324340820312500e+01,-6.382153320312500000e+01,-6.294072723388671875e+01,-6.225096130371093750e+01,-6.256351470947265625e+01,-6.330934143066406250e+01,-6.322228240966796875e+01,-6.267534637451171875e+01,-6.243246459960937500e+01,-6.110657501220703125e+01,-5.847102737426757812e+01,-5.682763671875000000e+01,-5.687896728515625000e+01,-5.811913299560546875e+01,-5.885540008544921875e+01,-5.854916763305664062e+01,-5.874536132812500000e+01,-6.000696563720703125e+01,-6.216640472412109375e+01,-6.461900329589843750e+01,-6.608663177490234375e+01,-6.617903900146484375e+01,-6.603976440429687500e+01,-6.543846130371093750e+01,-6.429259490966796875e+01,-6.352333068847656250e+01,-6.313169097900390625e+01,-6.242344665527343750e+01,-6.160525512695312500e+01,-6.084091186523437500e+01,-5.991458892822265625e+01,-5.937291717529296875e+01,-5.991003417968750000e+01,-6.145163726806640625e+01,-6.276068115234375000e+01,-6.286443328857421875e+01,-6.244252014160156250e+01,-6.200844573974609375e+01,-6.191519165039062500e+01,-6.238402557373046875e+01,-6.238863372802734375e+01,-6.040658569335937500e+01,-5.789990234375000000e+01,-5.598536682128906250e+01,-5.521126556396484375e+01,-5.597415161132812500e+01,-5.861424636840820312e+01,-6.303455352783203125e+01,-6.516195678710937500e+01,-6.352052307128906250e+01,-6.199167633056640625e+01,-6.107501220703125000e+01
-4.189955902099609375e+01,-4.550384521484375000e+01,-4.943920898437500000e+01,-5.328889465332031250e+01,-5.661740875244140625e+01,-5.861121368408203125e+01,-6.029434204101562500e+01,-6.157881164550781250e+01,-6.265894317626953125e+01,-6.315195465087890625e+01,-6.288970947265625000e+01,-6.223996734619140625e+01,-6.173829650878906250e+01,-6.184188079833984375e+01,-6.253662109375000000e+01,-6.313452148437500000e+01,-6.309828948974609375e+01,-6.266983032226562500e+01,-6.141555786132812500e+01,-5.942494201660156250e+01,-5.791302490234375000e+01,-5.749650573730468750e+01,-5.798727416992187500e+01,-5.882039642333984375e+01,-5.908192443847656250e+01,-5.790587615966796875e+01,-5.667733001708984375e+01,-5.683863067626953125e+01,-5.885350799560546875e+01,-6.223448944091796875e+01,-6.428613281250000000e+01,-6.419831848144531250e+01,-6.321278381347656250e+01,-6.173928833007812500e+01,-6.014089202880859375e+01,-5.887683868408203125e+01,-5.795606231689453125e+01,-5.631774139404296875e+01,-5.430194091796875000e+01,-5.347005081176757812e+01,-5.447056579589843750e+01,-5.744714355468750000e+01,-6.168367004394531250e+01,-6.455329895019531250e+01,-6.578918457031250000e+01,-6.631768035888671875e+01,-6.649607849121093750e+01,-6.594844818115234375e+01,-6.517951202392578125e+01,-6.465216064453125000e+01,-6.414532470703125000e+01,-6.354906463623046875e+01,-6.326943206787109375e+01,-6.365213012695312500e+01,-6.468678283691406250e+01,-6.566428375244140625e+01,-6.569481658935546875e+01,-6.509571838378906250e+01,-6.461487579345703125e+01,-6.413761901855468750e+01,-6.361138153076171875e+01,-6.366120910644531250e+01,-6.453417968750000000e+01,-6.522132110595703125e+01,-6.469544982910156250e+01,-6.428224945068359375e+01,-6.458954620361328125e+01,-6.456120300292968750e+01,-6.382452392578125000e+01,-6.325563812255859375e+01,-6.279895019531250000e+01,-6.070569610595703125e+01,-5.802125549316406250e+01,-5.674342727661132812e+01,-5.720886230468750000e+01,-5.866381072998046875e+01,-5.896689605712890625e+01,-5.836924743652343750e+01,-5.870119476318359375e+01,-6.005426025390625000e+01,-6.173308563232421875e+01,-6.334573364257812500e+01,-6.492947387695312500e+01,-6.555480957031250000e+01,-6.472799682617187500e+01,-6.346240997314453125e+01,-6.288480377197265625e+01,-6.337567901611328125e+01,-6.405297851562500000e+01,-6.353347778320312500e+01,-6.220027923583984375e+01,-6.041873931884765625e+01,-5.870185089111328125e+01,-5.808763885498046875e+01,-5.904333496093750000e+01,-6.119459533691406250e+01,-6.220632934570312500e+01,-6.134552001953125000e+01,-6.082517242431640625e+01,-6.098209381103515625e+01,-6.160966491699218750e+01,-6.242808532714843750e+01,-6.250083923339843750e+01,-6.068432617187500000e+01,-5.863513946533203125e+01,-5.763913345336914062e+01,-5.791509246826171875e+01,-5.945716094970703125e+01,-6.198734283447265625e+01,-6.461663818359375000e+01,-6.563848114013671875e+01,-6.528651428222656250e+01,-6.457112121582031250e+01,-6.373627471923828125e+01
-4.325266265869140625e+01,-4.816556549072265625e+01,-5.360052490234375000e+01,-5.681669616699218750e+01,-5.885667419433593750e+01,-5.978101348876953125e+01,-6.018970489501953125e+01,-6.034295654296875000e+01,-6.085528564453125000e+01,-6.139138793945312500e+01,-6.100614166259765625e+01,-6.020415496826171875e+01,-5.978681945800781250e+01,-5.972891998291015625e+01,-6.005038452148437500e+01,-6.069712066650390625e+01,-6.111799621582031250e+01,-6.118724822998046875e+01,-6.119573211669921875e+01,-6.080009460449218750e+01,-5.972309112548828125e+01,-5.856593322753906250e+01,-5.754089355468750000e+01,-5.693396759033203125e+01,-5.695465850830078125e+01,-5.699748229980468750e+01,-5.673439407348632812e+01,-5.701917266845703125e+01,-5.867086029052734375e+01,-6.159365844726562500e+01,-6.409362030029296875e+01,-6.463317871093750000e+01,-6.393431091308593750e+01,-6.271107482910156250e+01,-6.101529693603515625e+01,-5.930459213256835938e+01,-5.809957122802734375e+01,-5.693704223632812500e+01,-5.574924468994140625e+01,-5.541139221191406250e+01,-5.653555297851562500e+01,-5.917890930175781250e+01,-6.238185882568359375e+01,-6.439276123046875000e+01,-6.480473327636718750e+01,-6.407456970214843750e+01,-6.348178863525390625e+01,-6.351857757568359375e+01,-6.406690979003906250e+01,-6.435477447509765625e+01,-6.383389282226562500e+01,-6.321054840087890625e+01,-6.308045959472656250e+01,-6.357947540283203125e+01,-6.453243255615234375e+01,-6.532889556884765625e+01,-6.540119171142578125e+01,-6.515511322021484375e+01,-6.472570037841796875e+01,-6.325131988525390625e+01,-6.164675140380859375e+01,-6.101392364501953125e+01,-6.134545898437500000e+01,-6.200833129882812500e+01,-6.259920501708984375e+01,-6.321837615966796875e+01,-6.377338409423828125e+01,-6.415192413330078125e+01,-6.424608612060546875e+01,-6.383524322509765625e+01,-6.278241729736328125e+01,-6.044484710693359375e+01,-5.785774230957031250e+01,-5.668707275390625000e+01,-5.737123107910156250e+01,-5.956635284423828125e+01,-6.111016082763671875e+01,-6.062577819824218750e+01,-6.031416320800781250e+01,-6.080876922607421875e+01,-6.196363830566406250e+01,-6.342202758789062500e+01,-6.409976196289062500e+01,-6.352832794189453125e+01,-6.268690490722656250e+01,-6.218435668945312500e+01,-6.240755462646484375e+01,-6.350476074218750000e+01,-6.427035522460937500e+01,-6.326365661621093750e+01,-6.206332397460937500e+01,-6.136991119384765625e+01,-6.087117767333984375e+01,-6.087126159667968750e+01,-6.188536071777343750e+01,-6.361074066162109375e+01,-6.437160491943359375e+01,-6.375096130371093750e+01,-6.322039031982421875e+01,-6.322138214111328125e+01,-6.315098571777343750e+01,-6.215111541748046875e+01,-6.065601348876953125e+01,-5.932628250122070312e+01,-5.799528503417968750e+01,-5.666794204711914062e+01,-5.616906738281250000e+01,-5.717608642578125000e+01,-5.991204071044921875e+01,-6.325152587890625000e+01,-6.402360534667968750e+01,-6.357823181152343750e+01,-6.334485626220703125e+01,-6.337641143798828125e+01
-4.825136566162109375e+01,-5.252036285400390625e+01,-5.812174987792968750e+01,-6.109003448486328125e+01,-6.123332214355468750e+01,-6.118183898925781250e+01,-6.118343353271484375e+01,-6.125131988525390625e+01,-6.132919311523437500e+01,-6.099269104003906250e+01,-6.035227203369140625e+01,-6.005385589599609375e+01,-6.042396545410156250e+01,-6.114585113525390625e+01,-6.183341979980468750e+01,-6.215956115722656250e+01,-6.140048980712890625e+01,-5.981603240966796875e+01,-5.800334167480468750e+01,-5.672070312500000000e+01,-5.652787780761718750e+01,-5.734681701660156250e+01,-5.814384078979492188e+01,-5.816069030761718750e+01,-5.791058349609375000e+01,-5.742350769042968750e+01,-5.712884521484375000e+01,-5.785143280029296875e+01,-5.978500366210937500e+01,-6.195570373535156250e+01,-6.262066650390625000e+01,-6.121347808837890625e+01,-5.961164855957031250e+01,-5.907952117919921875e+01,-5.946937561035156250e+01,-6.007659912109375000e+01,-5.999349975585937500e+01,-5.757426452636718750e+01,-5.459433746337890625e+01,-5.331615447998046875e+01,-5.410884094238281250e+01,-5.697664642333984375e+01,-6.105646514892578125e+01,-6.341940307617187500e+01,-6.394078063964843750e+01,-6.343521881103515625e+01,-6.282320404052734375e+01,-6.268743133544921875e+01,-6.318965148925781250e+01,-6.405094909667968750e+01,-6.487753295898437500e+01,-6.546840667724609375e+01,-6.567711639404296875e+01,-6.581306457519531250e+01,-6.614637756347656250e+01,-6.635894775390625000e+01,-6.577953338623046875e+01,-6.463043212890625000e+01,-6.378128814697265625e+01,-6.362618255615234375e+01,-6.405389404296875000e+01,-6.464891052246093750e+01,-6.508366394042968750e+01,-6.513412475585937500e+01,-6.438803863525390625e+01,-6.290916442871093750e+01,-6.188996124267578125e+01,-6.201475524902343750e+01,-6.301296997070312500e+01,-6.394132232666015625e+01,-6.399389648437500000e+01,-6.135098266601562500e+01,-5.792140197753906250e+01,-5.636492156982421875e+01,-5.697438812255859375e+01,-5.921261215209960938e+01,-6.045223999023437500e+01,-5.962551879882812500e+01,-5.928496551513671875e+01,-5.991848754882812500e+01,-6.139199829101562500e+01,-6.330822753906250000e+01,-6.432246398925781250e+01,-6.398258972167968750e+01,-6.374368286132812500e+01,-6.376014709472656250e+01,-6.379576110839843750e+01,-6.424562835693359375e+01,-6.488622283935546875e+01,-6.438411712646484375e+01,-6.319873809814453125e+01,-6.223872375488281250e+01,-6.165476989746093750e+01,-6.171132659912109375e+01,-6.257595825195312500e+01,-6.366004180908203125e+01,-6.392879486083984375e+01,-6.351881408691406250e+01,-6.314347076416015625e+01,-6.322286987304687500e+01,-6.340915679931640625e+01,-6.235652923583984375e+01,-5.967493438720703125e+01,-5.743939971923828125e+01,-5.628825378417968750e+01,-5.568160247802734375e+01,-5.549783325195312500e+01,-5.624341583251953125e+01,-5.839898300170898438e+01,-6.143501281738281250e+01,-6.334552764892578125e+01,-6.409895324707031250e+01,-6.419681549072265625e+01,-6.369353485107421875e+01
-4.893140029907226562e+01,-5.309609985351562500e+01,-5.699525070190429688e+01,-5.948632049560546875e+01,-6.153787994384765625e+01,-6.226113128662109375e+01,-6.208589935302734375e+01,-6.178351593017578125e+01,-6.142414093017578125e+01,-6.114540863037109375e+01,-6.104306030273437500e+01,-6.139144134521484375e+01,-6.223728942871093750e+01,-6.292241668701171875e+01,-6.303150939941406250e+01,-6.245752716064453125e+01,-6.081563568115234375e+01,-5.944887542724609375e+01,-5.902124786376953125e+01,-5.915038299560546875e+01,-5.941841125488281250e+01,-5.983523559570312500e+01,-6.033786773681640625e+01,-6.063555908203125000e+01,-6.030401611328125000e+01,-5.860201263427734375e+01,-5.713087463378906250e+01,-5.724588012695312500e+01,-5.923795318603515625e+01,-6.214506530761718750e+01,-6.226990509033203125e+01,-6.051456451416015625e+01,-5.936244201660156250e+01,-5.895035934448242188e+01,-5.913301849365234375e+01,-5.962026214599609375e+01,-5.882601928710937500e+01,-5.528388214111328125e+01,-5.232079315185546875e+01,-5.146068572998046875e+01,-5.286348724365234375e+01,-5.671979522705078125e+01,-6.218839263916015625e+01,-6.476860046386718750e+01,-6.555405426025390625e+01,-6.485810852050781250e+01,-6.329807281494140625e+01,-6.213381958007812500e+01,-6.201281738281250000e+01,-6.280307006835937500e+01,-6.375638580322265625e+01,-6.400895690917968750e+01,-6.350304412841796875e+01,-6.261499786376953125e+01,-6.221788024902343750e+01,-6.255740356445312500e+01,-6.301408386230468750e+01,-6.315941619873046875e+01,-6.322843170166015625e+01,-6.313559722900390625e+01,-6.287075805664062500e+01,-6.305113983154296875e+01,-6.392989349365234375e+01,-6.516669464111328125e+01,-6.591438293457031250e+01,-6.555801391601562500e+01,-6.476931762695312500e+01,-6.430767059326171875e+01,-6.398424530029296875e+01,-6.326728820800781250e+01,-6.215640258789062500e+01,-6.073427581787109375e+01,-5.945064544677734375e+01,-5.906652832031250000e+01,-5.975570678710937500e+01,-6.072348022460937500e+01,-6.072303009033203125e+01,-6.022659301757812500e+01,-6.024995422363281250e+01,-6.100125885009765625e+01,-6.216566467285156250e+01,-6.279859924316406250e+01,-6.238641357421875000e+01,-6.189819335937500000e+01,-6.220818328857421875e+01,-6.342946624755859375e+01,-6.491675567626953125e+01,-6.556068420410156250e+01,-6.529836273193359375e+01,-6.459654235839843750e+01,-6.385653686523437500e+01,-6.334436035156250000e+01,-6.266497039794921875e+01,-6.173945617675781250e+01,-6.142185974121093750e+01,-6.214662933349609375e+01,-6.292878723144531250e+01,-6.166341400146484375e+01,-5.987708282470703125e+01,-5.939810180664062500e+01,-6.033347320556640625e+01,-6.132028198242187500e+01,-6.040103912353515625e+01,-5.910132598876953125e+01,-5.839562606811523438e+01,-5.800910949707031250e+01,-5.797500228881835938e+01,-5.868568420410156250e+01,-6.028598785400390625e+01,-6.224035644531250000e+01,-6.390148925781250000e+01,-6.504985809326171875e+01,-6.537470245361328125e+01,-6.443563079833984375e+01
-4.644820404052734375e+01,-5.138034820556640625e+01,-5.581670379638671875e+01,-5.761116790771484375e+01,-5.993448638916015625e+01,-6.168559265136718750e+01,-6.226462554931640625e+01,-6.274366760253906250e+01,-6.256404113769531250e+01,-6.175168609619140625e+01,-6.138156890869140625e+01,-6.203926849365234375e+01,-6.327915954589843750e+01,-6.363652038574218750e+01,-6.318611145019531250e+01,-6.291590118408203125e+01,-6.206466674804687500e+01,-6.041434478759765625e+01,-5.920960235595703125e+01,-5.906455230712890625e+01,-5.977711486816406250e+01,-6.059770965576171875e+01,-6.107530212402343750e+01,-6.160021209716796875e+01,-6.157611846923828125e+01,-6.021031188964843750e+01,-5.918568420410156250e+01,-5.971748352050781250e+01,-6.191495513916015625e+01,-6.448527526855468750e+01,-6.423203277587890625e+01,-6.258850097656250000e+01,-6.195627593994140625e+01,-6.260295104980468750e+01,-6.350320434570312500e+01,-6.239102935791015625e+01,-5.885654830932617188e+01,-5.377959823608398438e+01,-5.037119293212890625e+01,-4.936294555664062500e+01,-5.077919769287109375e+01,-5.497039794921875000e+01,-6.168756103515625000e+01,-6.448044586181640625e+01,-6.575363922119140625e+01,-6.688347625732421875e+01,-6.599227905273437500e+01,-6.394012451171875000e+01,-6.285505676269531250e+01,-6.277293395996093750e+01,-6.296945190429687500e+01,-6.318007659912109375e+01,-6.371397399902343750e+01,-6.431989288330078125e+01,-6.390546417236328125e+01,-6.252696228027343750e+01,-6.120011138916015625e+01,-6.057027435302734375e+01,-6.065418243408203125e+01,-6.115879821777343750e+01,-6.196664428710937500e+01,-6.316166687011718750e+01,-6.460738372802734375e+01,-6.560301208496093750e+01,-6.587692260742187500e+01,-6.600918579101562500e+01,-6.615519714355468750e+01,-6.539802551269531250e+01,-6.356764984130859375e+01,-6.209610748291015625e+01,-6.150896453857421875e+01,-6.117446899414062500e+01,-6.047190093994140625e+01,-5.975385284423828125e+01,-5.925754547119140625e+01,-5.913352203369140625e+01,-5.959629058837890625e+01,-6.032319641113281250e+01,-6.070880889892578125e+01,-6.122515869140625000e+01,-6.266988372802734375e+01,-6.368101501464843750e+01,-6.265380859375000000e+01,-6.178728485107421875e+01,-6.228627014160156250e+01,-6.385147094726562500e+01,-6.541610717773437500e+01,-6.622547912597656250e+01,-6.629438018798828125e+01,-6.549768066406250000e+01,-6.423366546630859375e+01,-6.308770751953125000e+01,-6.223176574707031250e+01,-6.168792724609375000e+01,-6.164073944091796875e+01,-6.224284362792968750e+01,-6.330356597900390625e+01,-6.414069366455078125e+01,-6.437216186523437500e+01,-6.433508300781250000e+01,-6.392726898193359375e+01,-6.278562164306640625e+01,-6.128071594238281250e+01,-6.020030975341796875e+01,-5.949568176269531250e+01,-5.878414154052734375e+01,-5.848741149902343750e+01,-5.917720031738281250e+01,-6.096932983398437500e+01,-6.329669952392578125e+01,-6.528877258300781250e+01,-6.639873504638671875e+01,-6.652228546142578125e+01,-6.655501556396484375e+01
-4.600361633300781250e+01,-5.115602111816406250e+01,-5.594164276123046875e+01,-5.767053985595703125e+01,-5.922838592529296875e+01,-6.018007659912109375e+01,-6.109545135498046875e+01,-6.215760803222656250e+01,-6.199017333984375000e+01,-6.098665618896484375e+01,-6.085345458984375000e+01,-6.147848510742187500e+01,-6.148194122314453125e+01,-6.106642913818359375e+01,-6.149237823486328125e+01,-6.275886535644531250e+01,-6.308479309082031250e+01,-6.185704803466796875e+01,-6.018225860595703125e+01,-5.887026977539062500e+01,-5.858613586425781250e+01,-5.916242218017578125e+01,-5.969896697998046875e+01,-5.967655181884765625e+01,-5.979077911376953125e+01,-5.993306732177734375e+01,-5.975576019287109375e+01,-6.014750671386718750e+01,-6.182535552978515625e+01,-6.442179870605468750e+01,-6.527828979492187500e+01,-6.412979888916015625e+01,-6.325886535644531250e+01,-6.278806304931640625e+01,-6.196469116210937500e+01,-6.057427978515625000e+01,-5.876628875732421875e+01,-5.473949813842773438e+01,-5.128593444824218750e+01,-5.005864334106445312e+01,-5.118149566650390625e+01,-5.484072875976562500e+01,-6.039154052734375000e+01,-6.316661071777343750e+01,-6.406655883789062500e+01,-6.454966735839843750e+01,-6.449813079833984375e+01,-6.358915710449218750e+01,-6.308953857421875000e+01,-6.356838226318359375e+01,-6.427349090576171875e+01,-6.439719390869140625e+01,-6.406768035888671875e+01,-6.333338165283203125e+01,-6.276679992675781250e+01,-6.268486022949218750e+01,-6.180482482910156250e+01,-6.007881164550781250e+01,-5.910839080810546875e+01,-5.947884368896484375e+01,-6.098578643798828125e+01,-6.299804687500000000e+01,-6.464442443847656250e+01,-6.529960632324218750e+01,-6.532297515869140625e+01,-6.538348388671875000e+01,-6.547452545166015625e+01,-6.448457336425781250e+01,-6.229898071289062500e+01,-6.078117370605468750e+01,-6.056803894042968750e+01,-6.109445953369140625e+01,-6.129079437255859375e+01,-6.082070159912109375e+01,-5.974787139892578125e+01,-5.868087005615234375e+01,-5.849887084960937500e+01,-5.924108123779296875e+01,-6.019216156005859375e+01,-6.110084533691406250e+01,-6.276691436767578125e+01,-6.493067932128906250e+01,-6.528738403320312500e+01,-6.430896759033203125e+01,-6.406731414794921875e+01,-6.489141082763671875e+01,-6.605825042724609375e+01,-6.597368621826171875e+01,-6.487135314941406250e+01,-6.409790802001953125e+01,-6.393875122070312500e+01,-6.408114624023437500e+01,-6.404624938964843750e+01,-6.354674530029296875e+01,-6.292924499511718750e+01,-6.274812316894531250e+01,-6.311698150634765625e+01,-6.359754180908203125e+01,-6.383728790283203125e+01,-6.404523468017578125e+01,-6.409913635253906250e+01,-6.344161987304687500e+01,-6.239964294433593750e+01,-6.162823486328125000e+01,-6.001346588134765625e+01,-5.775907897949218750e+01,-5.657789611816406250e+01,-5.680101776123046875e+01,-5.801747131347656250e+01,-5.966720581054687500e+01,-6.181854248046875000e+01,-6.442281341552734375e+01,-6.577138519287109375e+01,-6.595895385742187500e+01
-4.841834259033203125e+01,-5.309466552734375000e+01,-5.763845825195312500e+01,-5.956327056884765625e+01,-6.061755371093750000e+01,-6.097297668457031250e+01,-6.099375915527343750e+01,-6.121659088134765625e+01,-6.192653656005859375e+01,-6.257057189941406250e+01,-6.279385375976562500e+01,-6.299883270263671875e+01,-6.318177032470703125e+01,-6.348573303222656250e+01,-6.376533508300781250e+01,-6.279468536376953125e+01,-6.097409820556640625e+01,-5.988262176513671875e+01,-5.975986480712890625e+01,-5.992536163330078125e+01,-6.006109619140625000e+01,-6.042648315429687500e+01,-6.085583496093750000e+01,-6.069397735595703125e+01,-5.984746551513671875e+01,-5.844923400878906250e+01,-5.739129257202148438e+01,-5.757912826538085938e+01,-5.928463363647460938e+01,-6.164218902587890625e+01,-6.229996490478515625e+01,-6.201564025878906250e+01,-6.217729949951171875e+01,-6.233869171142578125e+01,-6.162741088867187500e+01,-6.036099243164062500e+01,-5.906564331054687500e+01,-5.710551452636718750e+01,-5.508451080322265625e+01,-5.422101593017578125e+01,-5.495001220703125000e+01,-5.727149200439453125e+01,-6.067095184326171875e+01,-6.412467956542968750e+01,-6.617594909667968750e+01,-6.582648468017578125e+01,-6.481416320800781250e+01,-6.421309661865234375e+01,-6.424823760986328125e+01,-6.457558441162109375e+01,-6.477149963378906250e+01,-6.488273620605468750e+01,-6.489398956298828125e+01,-6.458902740478515625e+01,-6.438545227050781250e+01,-6.456069183349609375e+01,-6.468164062500000000e+01,-6.444564056396484375e+01,-6.413350677490234375e+01,-6.398620605468750000e+01,-6.427980041503906250e+01,-6.496532440185546875e+01,-6.536002349853515625e+01,-6.541940307617187500e+01,-6.571294403076171875e+01,-6.556255340576171875e+01,-6.460485839843750000e+01,-6.353335571289062500e+01,-6.182238006591796875e+01,-6.009527587890625000e+01,-5.954690551757812500e+01,-6.009963989257812500e+01,-6.056039428710937500e+01,-6.019142150878906250e+01,-5.974837493896484375e+01,-5.957759094238281250e+01,-5.948227691650390625e+01,-5.947010040283203125e+01,-5.983282470703125000e+01,-6.096188354492187500e+01,-6.279190063476562500e+01,-6.403069305419921875e+01,-6.383352661132812500e+01,-6.355674743652343750e+01,-6.421005249023437500e+01,-6.571063995361328125e+01,-6.675193786621093750e+01,-6.640788269042968750e+01,-6.566738128662109375e+01,-6.500292968750000000e+01,-6.444336700439453125e+01,-6.406524658203125000e+01,-6.354122924804687500e+01,-6.310315704345703125e+01,-6.316224670410156250e+01,-6.303527069091796875e+01,-6.221556854248046875e+01,-6.154544830322265625e+01,-6.164720916748046875e+01,-6.243460845947265625e+01,-6.339781951904296875e+01,-6.286356353759765625e+01,-6.096057891845703125e+01,-5.972747039794921875e+01,-5.919324493408203125e+01,-5.863819122314453125e+01,-5.818087768554687500e+01,-5.847991180419921875e+01,-5.977868652343750000e+01,-6.186034393310546875e+01,-6.415184020996093750e+01,-6.550189971923828125e+01,-6.588729858398437500e+01,-6.605803680419921875e+01
-4.833801269531250000e+01,-5.152446365356445312e+01,-5.457509613037109375e+01,-5.738932037353515625e+01,-6.007516479492187500e+01,-6.134895324707031250e+01,-6.076563262939453125e+01,-5.973529052734375000e+01,-5.931209182739257812e+01,-5.939019775390625000e+01,-5.975778961181640625e+01,-6.053009033203125000e+01,-6.163836669921875000e+01,-6.295699310302734375e+01,-6.454969787597656250e+01,-6.514915466308593750e+01,-6.336025238037109375e+01,-6.146487426757812500e+01,-6.033227539062500000e+01,-5.956168365478515625e+01,-5.907207489013671875e+01,-5.898825073242187500e+01,-5.922922515869140625e+01,-5.955409240722656250e+01,-5.924335479736328125e+01,-5.724491500854492188e+01,-5.555780029296875000e+01,-5.559982299804687500e+01,-5.757309722900390625e+01,-6.065044403076171875e+01,-6.203378295898437500e+01,-6.205710601806640625e+01,-6.194784545898437500e+01,-6.166050720214843750e+01,-6.140370941162109375e+01,-6.099047088623046875e+01,-5.906909179687500000e+01,-5.587067794799804688e+01,-5.303627777099609375e+01,-5.142286682128906250e+01,-5.136177444458007812e+01,-5.304902648925781250e+01,-5.673205566406250000e+01,-6.225325775146484375e+01,-6.586380004882812500e+01,-6.525204467773437500e+01,-6.459919738769531250e+01,-6.495407104492187500e+01,-6.586728668212890625e+01,-6.596300506591796875e+01,-6.500998687744140625e+01,-6.456649780273437500e+01,-6.502479553222656250e+01,-6.549095916748046875e+01,-6.548048400878906250e+01,-6.578452301025390625e+01,-6.621192932128906250e+01,-6.533451080322265625e+01,-6.378667449951171875e+01,-6.305476379394531250e+01,-6.330254364013671875e+01,-6.372142791748046875e+01,-6.359397888183593750e+01,-6.352919769287109375e+01,-6.416512298583984375e+01,-6.471150970458984375e+01,-6.402909851074218750e+01,-6.296912384033203125e+01,-6.209947204589843750e+01,-6.134845733642578125e+01,-6.074922943115234375e+01,-6.052011108398437500e+01,-6.081317138671875000e+01,-6.153424835205078125e+01,-6.214308166503906250e+01,-6.197517395019531250e+01,-6.119621276855468750e+01,-6.042798614501953125e+01,-6.025472259521484375e+01,-6.107599639892578125e+01,-6.284133148193359375e+01,-6.448869323730468750e+01,-6.473014068603515625e+01,-6.442599487304687500e+01,-6.476448059082031250e+01,-6.561719512939453125e+01,-6.577345275878906250e+01,-6.500318908691406250e+01,-6.455602264404296875e+01,-6.481352233886718750e+01,-6.530867004394531250e+01,-6.559940338134765625e+01,-6.585246276855468750e+01,-6.590415191650390625e+01,-6.507561492919921875e+01,-6.374826812744140625e+01,-6.297756195068359375e+01,-6.329174804687500000e+01,-6.459340667724609375e+01,-6.584342956542968750e+01,-6.506367492675781250e+01,-6.297815704345703125e+01,-6.141503906250000000e+01,-6.045435333251953125e+01,-5.943188476562500000e+01,-5.829574584960937500e+01,-5.770426940917968750e+01,-5.806027984619140625e+01,-5.945482635498046875e+01,-6.183081054687500000e+01,-6.463604736328125000e+01,-6.627716827392578125e+01,-6.626451110839843750e+01,-6.584774017333984375e+01
-4.605460739135742188e+01,-4.760379028320312500e+01,-5.033745574951171875e+01,-5.453112030029296875e+01,-5.807851028442382812e+01,-5.836319732666015625e+01,-5.774763488769531250e+01,-5.801998138427734375e+01,-5.935741043090820312e+01,-6.042731475830078125e+01,-6.024040222167968750e+01,-6.034534454345703125e+01,-6.141156768798828125e+01,-6.291754150390625000e+01,-6.356732177734375000e+01,-6.306359100341796875e+01,-6.225318145751953125e+01,-6.163054656982421875e+01,-6.111398315429687500e+01,-5.990101623535156250e+01,-5.827598953247070312e+01,-5.741484832763671875e+01,-5.779733276367187500e+01,-5.914145660400390625e+01,-5.951286315917968750e+01,-5.767466735839843750e+01,-5.626550292968750000e+01,-5.657785797119140625e+01,-5.874874877929687500e+01,-6.196793365478515625e+01,-6.343789672851562500e+01,-6.290079498291015625e+01,-6.232310485839843750e+01,-6.217686462402343750e+01,-6.174334716796875000e+01,-6.027735900878906250e+01,-5.827484130859375000e+01,-5.615544128417968750e+01,-5.422560882568359375e+01,-5.298336029052734375e+01,-5.284445190429687500e+01,-5.408340454101562500e+01,-5.685639190673828125e+01,-6.087447357177734375e+01,-6.369821166992187500e+01,-6.350415802001953125e+01,-6.300590515136718750e+01,-6.320272827148437500e+01,-6.436397552490234375e+01,-6.581920623779296875e+01,-6.572710418701171875e+01,-6.476225280761718750e+01,-6.467819213867187500e+01,-6.551393127441406250e+01,-6.628194427490234375e+01,-6.639344787597656250e+01,-6.588760375976562500e+01,-6.474272918701171875e+01,-6.361539459228515625e+01,-6.305354309082031250e+01,-6.300642395019531250e+01,-6.293904876708984375e+01,-6.267414093017578125e+01,-6.277246856689453125e+01,-6.354113006591796875e+01,-6.468156433105468750e+01,-6.566083526611328125e+01,-6.589293670654296875e+01,-6.428477478027343750e+01,-6.212390136718750000e+01,-6.066085815429687500e+01,-6.004400634765625000e+01,-6.013400268554687500e+01,-6.054284667968750000e+01,-6.078414916992187500e+01,-6.061171722412109375e+01,-6.015384674072265625e+01,-5.965436553955078125e+01,-5.961903381347656250e+01,-6.047207641601562500e+01,-6.209421539306640625e+01,-6.373219299316406250e+01,-6.461948394775390625e+01,-6.488002777099609375e+01,-6.481283569335937500e+01,-6.457577514648437500e+01,-6.445407104492187500e+01,-6.459391021728515625e+01,-6.475107574462890625e+01,-6.454104614257812500e+01,-6.427782440185546875e+01,-6.453095245361328125e+01,-6.521575927734375000e+01,-6.565050506591796875e+01,-6.532011413574218750e+01,-6.448049926757812500e+01,-6.384545135498046875e+01,-6.386412811279296875e+01,-6.392678833007812500e+01,-6.302564239501953125e+01,-6.187246704101562500e+01,-6.140856170654296875e+01,-6.152331542968750000e+01,-6.116139984130859375e+01,-5.972930145263671875e+01,-5.832157135009765625e+01,-5.789433288574218750e+01,-5.860469055175781250e+01,-6.022766876220703125e+01,-6.243154907226562500e+01,-6.500324249267578125e+01,-6.716403961181640625e+01,-6.739875793457031250e+01,-6.644130706787109375e+01
-4.244765472412109375e+01,-4.309899139404296875e+01,-4.575360107421875000e+01,-5.074449157714843750e+01,-5.646603393554687500e+01,-5.663950347900390625e+01,-5.501532745361328125e+01,-5.491114807128906250e+01,-5.655186462402343750e+01,-5.949929046630859375e+01,-6.187489318847656250e+01,-6.272090911865234375e+01,-6.316564178466796875e+01,-6.345404052734375000e+01,-6.291385650634765625e+01,-6.165053558349609375e+01,-6.065939331054687500e+01,-6.033612823486328125e+01,-6.029025268554687500e+01,-5.978463745117187500e+01,-5.895319366455078125e+01,-5.864833068847656250e+01,-5.941121673583984375e+01,-6.106340789794921875e+01,-6.058933258056640625e+01,-5.710466766357421875e+01,-5.493415451049804688e+01,-5.493611907958984375e+01,-5.711887359619140625e+01,-6.109722137451171875e+01,-6.376233673095703125e+01,-6.328872680664062500e+01,-6.246755218505859375e+01,-6.220665740966796875e+01,-6.178956604003906250e+01,-5.981087493896484375e+01,-5.724230957031250000e+01,-5.553880310058593750e+01,-5.486355209350585938e+01,-5.497648620605468750e+01,-5.565549468994140625e+01,-5.698655700683593750e+01,-5.923168945312500000e+01,-6.212995910644531250e+01,-6.370396423339843750e+01,-6.306300354003906250e+01,-6.268103027343750000e+01,-6.306492614746093750e+01,-6.386977386474609375e+01,-6.491005706787109375e+01,-6.568224334716796875e+01,-6.560584259033203125e+01,-6.542761230468750000e+01,-6.577754974365234375e+01,-6.631562805175781250e+01,-6.618036651611328125e+01,-6.516038513183593750e+01,-6.406554412841796875e+01,-6.339023590087890625e+01,-6.308845520019531250e+01,-6.310534667968750000e+01,-6.339513397216796875e+01,-6.374423980712890625e+01,-6.408112335205078125e+01,-6.455284118652343750e+01,-6.502248382568359375e+01,-6.529309844970703125e+01,-6.485715484619140625e+01,-6.291156768798828125e+01,-6.075026702880859375e+01,-5.967072296142578125e+01,-5.959809875488281250e+01,-5.984907531738281250e+01,-5.997428894042968750e+01,-5.996569061279296875e+01,-5.953697967529296875e+01,-5.883634948730468750e+01,-5.862583160400390625e+01,-5.921865844726562500e+01,-6.052712249755859375e+01,-6.234214782714843750e+01,-6.424523162841796875e+01,-6.534111785888671875e+01,-6.537691497802734375e+01,-6.497701263427734375e+01,-6.459733581542968750e+01,-6.463487243652343750e+01,-6.518790435791015625e+01,-6.570153808593750000e+01,-6.537124633789062500e+01,-6.468064117431640625e+01,-6.431195831298828125e+01,-6.422013092041015625e+01,-6.420038604736328125e+01,-6.415585327148437500e+01,-6.396805572509765625e+01,-6.374054718017578125e+01,-6.364693450927734375e+01,-6.344232940673828125e+01,-6.307853698730468750e+01,-6.270992279052734375e+01,-6.175109863281250000e+01,-5.978839111328125000e+01,-5.782347869873046875e+01,-5.673261260986328125e+01,-5.662995529174804688e+01,-5.730855560302734375e+01,-5.849644470214843750e+01,-6.014442443847656250e+01,-6.238403320312500000e+01,-6.501528930664062500e+01,-6.707839202880859375e+01,-6.741285705566406250e+01,-6.685889434814453125e+01
-4.603000640869140625e+01,-4.670716857910156250e+01,-4.907381439208984375e+01,-5.340475463867187500e+01,-5.837890625000000000e+01,-5.969699096679687500e+01,-5.914422607421875000e+01,-5.942332458496093750e+01,-6.076328277587890625e+01,-6.236644744873046875e+01,-6.318462371826171875e+01,-6.336714935302734375e+01,-6.313532257080078125e+01,-6.287976074218750000e+01,-6.282440948486328125e+01,-6.284204101562500000e+01,-6.263980865478515625e+01,-6.224940490722656250e+01,-6.164644622802734375e+01,-6.091697692871093750e+01,-6.042937469482421875e+01,-6.037884521484375000e+01,-6.092182159423828125e+01,-6.179351043701171875e+01,-6.117618560791015625e+01,-5.829763793945312500e+01,-5.624226379394531250e+01,-5.613123321533203125e+01,-5.807778549194335938e+01,-6.176882934570312500e+01,-6.444995880126953125e+01,-6.377049255371093750e+01,-6.242205810546875000e+01,-6.171242523193359375e+01,-6.153623199462890625e+01,-6.075684356689453125e+01,-5.852998352050781250e+01,-5.590704345703125000e+01,-5.411818695068359375e+01,-5.367690277099609375e+01,-5.466863250732421875e+01,-5.693122863769531250e+01,-5.989138793945312500e+01,-6.271990203857421875e+01,-6.497112274169921875e+01,-6.603971099853515625e+01,-6.544518280029296875e+01,-6.369525909423828125e+01,-6.263751983642578125e+01,-6.273130798339843750e+01,-6.302379608154296875e+01,-6.282693481445312500e+01,-6.298199462890625000e+01,-6.383400726318359375e+01,-6.460018157958984375e+01,-6.491342163085937500e+01,-6.495715332031250000e+01,-6.442130279541015625e+01,-6.316375732421875000e+01,-6.193739318847656250e+01,-6.133644104003906250e+01,-6.140437316894531250e+01,-6.207468414306640625e+01,-6.329515075683593750e+01,-6.469374847412109375e+01,-6.528121948242187500e+01,-6.485142517089843750e+01,-6.348559570312500000e+01,-6.176226043701171875e+01,-6.077624511718750000e+01,-6.060157012939453125e+01,-6.045925140380859375e+01,-6.002386474609375000e+01,-5.984868621826171875e+01,-5.994610595703125000e+01,-5.976508331298828125e+01,-5.936710357666015625e+01,-5.934288787841796875e+01,-6.008112335205078125e+01,-6.167135620117187500e+01,-6.369909667968750000e+01,-6.507439422607421875e+01,-6.530030059814453125e+01,-6.499873352050781250e+01,-6.432193756103515625e+01,-6.361676788330078125e+01,-6.347912597656250000e+01,-6.414132690429687500e+01,-6.525541687011718750e+01,-6.570059204101562500e+01,-6.522380828857421875e+01,-6.473799133300781250e+01,-6.461261749267578125e+01,-6.462722778320312500e+01,-6.458534240722656250e+01,-6.452520751953125000e+01,-6.453245544433593750e+01,-6.453281402587890625e+01,-6.410726165771484375e+01,-6.285993957519531250e+01,-6.134415435791015625e+01,-5.958478546142578125e+01,-5.778987121582031250e+01,-5.678816223144531250e+01,-5.690594482421875000e+01,-5.779527282714843750e+01,-5.864915084838867188e+01,-5.924752044677734375e+01,-6.022486877441406250e+01,-6.202364349365234375e+01,-6.456954193115234375e+01,-6.642569732666015625e+01,-6.637989807128906250e+01,-6.594869232177734375e+01
-4.796331024169921875e+01,-5.197035980224609375e+01,-5.578519439697265625e+01,-5.848492050170898438e+01,-5.999599456787109375e+01,-5.996475219726562500e+01,-5.990602874755859375e+01,-6.079704284667968750e+01,-6.274555206298828125e+01,-6.493156433105468750e+01,-6.585598754882812500e+01,-6.537987518310546875e+01,-6.459314727783203125e+01,-6.428606414794921875e+01,-6.451696777343750000e+01,-6.405010223388671875e+01,-6.122921752929687500e+01,-5.896600341796875000e+01,-5.859629058837890625e+01,-5.991650390625000000e+01,-6.144598388671875000e+01,-6.152875518798828125e+01,-6.159091949462890625e+01,-6.128852081298828125e+01,-5.830387496948242188e+01,-5.546268844604492188e+01,-5.453677368164062500e+01,-5.568915939331054688e+01,-5.883204650878906250e+01,-6.273899078369140625e+01,-6.446238708496093750e+01,-6.410358428955078125e+01,-6.299727630615234375e+01,-6.217122650146484375e+01,-6.185358428955078125e+01,-6.167926025390625000e+01,-6.112936401367187500e+01,-5.962473297119140625e+01,-5.781401062011718750e+01,-5.697485351562500000e+01,-5.759528732299804688e+01,-5.955056762695312500e+01,-6.209192657470703125e+01,-6.412678527832031250e+01,-6.528374481201171875e+01,-6.574728393554687500e+01,-6.556964874267578125e+01,-6.447422027587890625e+01,-6.359630584716796875e+01,-6.344326782226562500e+01,-6.354792785644531250e+01,-6.377813720703125000e+01,-6.469786071777343750e+01,-6.611022949218750000e+01,-6.663471984863281250e+01,-6.636772918701171875e+01,-6.611953735351562500e+01,-6.576424407958984375e+01,-6.463436126708984375e+01,-6.301467132568359375e+01,-6.188128662109375000e+01,-6.163169097900390625e+01,-6.213827514648437500e+01,-6.307629394531250000e+01,-6.439313507080078125e+01,-6.573520660400390625e+01,-6.611732482910156250e+01,-6.519542694091796875e+01,-6.356909179687500000e+01,-6.200344085693359375e+01,-6.039711761474609375e+01,-5.870092010498046875e+01,-5.769152832031250000e+01,-5.801737213134765625e+01,-5.974008178710937500e+01,-6.206446075439453125e+01,-6.341110229492187500e+01,-6.336653900146484375e+01,-6.277843475341796875e+01,-6.250749969482421875e+01,-6.276873016357421875e+01,-6.318692779541015625e+01,-6.358866882324218750e+01,-6.429592132568359375e+01,-6.528811645507812500e+01,-6.606323242187500000e+01,-6.635827636718750000e+01,-6.667944335937500000e+01,-6.732629394531250000e+01,-6.714051055908203125e+01,-6.574363708496093750e+01,-6.423740386962890625e+01,-6.341233825683593750e+01,-6.360850524902343750e+01,-6.481463623046875000e+01,-6.579043579101562500e+01,-6.503654479980468750e+01,-6.402437591552734375e+01,-6.371046447753906250e+01,-6.372621917724609375e+01,-6.326953125000000000e+01,-6.199687194824218750e+01,-6.043128967285156250e+01,-5.946498107910156250e+01,-5.924713897705078125e+01,-5.926395034790039062e+01,-5.910701370239257812e+01,-5.894554901123046875e+01,-5.939377975463867188e+01,-6.091125488281250000e+01,-6.367826080322265625e+01,-6.641081237792968750e+01,-6.657984924316406250e+01,-6.597251892089843750e+01
-4.765681457519531250e+01,-5.101815414428710938e+01,-5.451300048828125000e+01,-5.759036636352539062e+01,-6.005523681640625000e+01,-6.089996337890625000e+01,-6.159864044189453125e+01,-6.245372009277343750e+01,-6.323680114746093750e+01,-6.357822418212890625e+01,-6.365992736816406250e+01,-6.396049499511718750e+01,-6.432747650146484375e+01,-6.461727142333984375e+01,-6.504905700683593750e+01,-6.549472808837890625e+01,-6.527305603027343750e+01,-6.458329772949218750e+01,-6.401768493652343750e+01,-6.315924835205078125e+01,-6.127548217773437500e+01,-5.966361999511718750e+01,-5.944534301757812500e+01,-6.039565277099609375e+01,-5.986399841308593750e+01,-5.736070251464843750e+01,-5.598193359375000000e+01,-5.648315429687500000e+01,-5.874802780151367188e+01,-6.193288421630859375e+01,-6.401790618896484375e+01,-6.389743804931640625e+01,-6.253289031982421875e+01,-6.186126708984375000e+01,-6.237125396728515625e+01,-6.303400421142578125e+01,-6.256011962890625000e+01,-6.145798492431640625e+01,-6.056558227539062500e+01,-6.042205810546875000e+01,-6.146147918701171875e+01,-6.370610809326171875e+01,-6.595527648925781250e+01,-6.670877075195312500e+01,-6.667237091064453125e+01,-6.651715087890625000e+01,-6.654052734375000000e+01,-6.669519805908203125e+01,-6.651731872558593750e+01,-6.579436492919921875e+01,-6.462272644042968750e+01,-6.371205902099609375e+01,-6.380213928222656250e+01,-6.507472991943359375e+01,-6.689514923095703125e+01,-6.763229370117187500e+01,-6.687604522705078125e+01,-6.552481079101562500e+01,-6.415644836425781250e+01,-6.323993682861328125e+01,-6.273313903808593750e+01,-6.217068481445312500e+01,-6.158213806152343750e+01,-6.173080444335937500e+01,-6.319894409179687500e+01,-6.580135345458984375e+01,-6.781800842285156250e+01,-6.685263824462890625e+01,-6.444897460937500000e+01,-6.244831085205078125e+01,-6.105025482177734375e+01,-6.009429931640625000e+01,-5.931393432617187500e+01,-5.882305526733398438e+01,-5.899231719970703125e+01,-5.993471527099609375e+01,-6.071824645996093750e+01,-6.036005401611328125e+01,-6.018811798095703125e+01,-6.133750915527343750e+01,-6.378230285644531250e+01,-6.586415100097656250e+01,-6.565541839599609375e+01,-6.449346923828125000e+01,-6.400828552246093750e+01,-6.448770141601562500e+01,-6.547114562988281250e+01,-6.660263061523437500e+01,-6.789664459228515625e+01,-6.890114593505859375e+01,-6.843061065673828125e+01,-6.646733093261718750e+01,-6.445556640625000000e+01,-6.359952545166015625e+01,-6.411566162109375000e+01,-6.522217559814453125e+01,-6.546551513671875000e+01,-6.485520172119140625e+01,-6.412951660156250000e+01,-6.332180023193359375e+01,-6.224086761474609375e+01,-6.113323211669921875e+01,-6.037438201904296875e+01,-5.996997833251953125e+01,-5.929598999023437500e+01,-5.842482757568359375e+01,-5.819985961914062500e+01,-5.881062698364257812e+01,-5.992707824707031250e+01,-6.129616546630859375e+01,-6.329975891113281250e+01,-6.592866516113281250e+01,-6.753619384765625000e+01,-6.705355834960937500e+01
-5.045719146728515625e+01,-5.561997604370117188e+01,-6.079808044433593750e+01,-6.197019958496093750e+01,-6.290495300292968750e+01,-6.376750183105468750e+01,-6.444671630859375000e+01,-6.449819183349609375e+01,-6.385560607910156250e+01,-6.315187072753906250e+01,-6.308438873291015625e+01,-6.370089721679687500e+01,-6.426531219482421875e+01,-6.416259002685546875e+01,-6.399037933349609375e+01,-6.395578765869140625e+01,-6.336871337890625000e+01,-6.246720886230468750e+01,-6.207114410400390625e+01,-6.216357421875000000e+01,-6.202429962158203125e+01,-6.155282592773437500e+01,-6.134441375732421875e+01,-6.133422851562500000e+01,-6.036793518066406250e+01,-5.868733978271484375e+01,-5.791717529296875000e+01,-5.876808166503906250e+01,-6.114611816406250000e+01,-6.330863952636718750e+01,-6.327325439453125000e+01,-6.268067932128906250e+01,-6.270036315917968750e+01,-6.366433715820312500e+01,-6.507668304443359375e+01,-6.499938201904296875e+01,-6.343354034423828125e+01,-6.203462219238281250e+01,-6.131800842285156250e+01,-6.150297546386718750e+01,-6.260726928710937500e+01,-6.430788421630859375e+01,-6.590346527099609375e+01,-6.699401092529296875e+01,-6.739944458007812500e+01,-6.736616516113281250e+01,-6.689477539062500000e+01,-6.575309753417968750e+01,-6.498056030273437500e+01,-6.489303588867187500e+01,-6.480487823486328125e+01,-6.435516357421875000e+01,-6.427400970458984375e+01,-6.501052856445312500e+01,-6.614096832275390625e+01,-6.676996612548828125e+01,-6.665881347656250000e+01,-6.585423278808593750e+01,-6.449794769287109375e+01,-6.362650299072265625e+01,-6.365637969970703125e+01,-6.367694091796875000e+01,-6.321868133544921875e+01,-6.338552093505859375e+01,-6.482204437255859375e+01,-6.664769744873046875e+01,-6.685218048095703125e+01,-6.552526092529296875e+01,-6.376093292236328125e+01,-6.238811492919921875e+01,-6.169657135009765625e+01,-6.157222747802734375e+01,-6.180545806884765625e+01,-6.217343139648437500e+01,-6.243427276611328125e+01,-6.222064971923828125e+01,-6.145750427246093750e+01,-6.080711364746093750e+01,-6.100638580322265625e+01,-6.241092681884765625e+01,-6.486736297607421875e+01,-6.722930145263671875e+01,-6.765847015380859375e+01,-6.680205535888671875e+01,-6.650380706787109375e+01,-6.721276092529296875e+01,-6.818474578857421875e+01,-6.847541809082031250e+01,-6.863836669921875000e+01,-6.881829833984375000e+01,-6.743932342529296875e+01,-6.540431213378906250e+01,-6.423307037353515625e+01,-6.417094421386718750e+01,-6.472992706298828125e+01,-6.498471832275390625e+01,-6.481761932373046875e+01,-6.489101409912109375e+01,-6.536195373535156250e+01,-6.583592224121093750e+01,-6.591594696044921875e+01,-6.479732513427734375e+01,-6.274448394775390625e+01,-6.094054412841796875e+01,-5.951994323730468750e+01,-5.864157104492187500e+01,-5.876982116699218750e+01,-6.020800018310546875e+01,-6.277441406250000000e+01,-6.540883636474609375e+01,-6.730854797363281250e+01,-6.866949462890625000e+01,-6.919317626953125000e+01,-6.884040832519531250e+01
-5.196276092529296875e+01,-5.798387145996093750e+01,-6.276040649414062500e+01,-6.232392120361328125e+01,-6.195954895019531250e+01,-6.195946502685546875e+01,-6.290854644775390625e+01,-6.502132415771484375e+01,-6.669869232177734375e+01,-6.637324523925781250e+01,-6.571891021728515625e+01,-6.504593658447265625e+01,-6.405966186523437500e+01,-6.349487304687500000e+01,-6.386353302001953125e+01,-6.464653778076171875e+01,-6.464057159423828125e+01,-6.401559448242187500e+01,-6.346088409423828125e+01,-6.283837127685546875e+01,-6.192492675781250000e+01,-6.090716552734375000e+01,-6.029049682617187500e+01,-6.038206481933593750e+01,-6.053128814697265625e+01,-5.962619018554687500e+01,-5.869583129882812500e+01,-5.902542495727539062e+01,-6.087298583984375000e+01,-6.349552917480468750e+01,-6.499819183349609375e+01,-6.491792297363281250e+01,-6.461374664306640625e+01,-6.475444030761718750e+01,-6.481919860839843750e+01,-6.451161193847656250e+01,-6.437833404541015625e+01,-6.420328521728515625e+01,-6.334060668945312500e+01,-6.250694274902343750e+01,-6.255134582519531250e+01,-6.364366149902343750e+01,-6.532147216796875000e+01,-6.648741912841796875e+01,-6.666233825683593750e+01,-6.672917938232421875e+01,-6.697850799560546875e+01,-6.702106475830078125e+01,-6.673691558837890625e+01,-6.600662231445312500e+01,-6.478141021728515625e+01,-6.386946105957031250e+01,-6.397579193115234375e+01,-6.515196228027343750e+01,-6.667675018310546875e+01,-6.700444793701171875e+01,-6.609837341308593750e+01,-6.516522979736328125e+01,-6.421807098388671875e+01,-6.340183258056640625e+01,-6.320825958251953125e+01,-6.351116943359375000e+01,-6.393321228027343750e+01,-6.468874359130859375e+01,-6.596076202392578125e+01,-6.629560852050781250e+01,-6.543720245361328125e+01,-6.449972534179687500e+01,-6.310605621337890625e+01,-6.169383239746093750e+01,-6.090738677978515625e+01,-6.075428771972656250e+01,-6.090970611572265625e+01,-6.114708709716796875e+01,-6.137586212158203125e+01,-6.164456939697265625e+01,-6.223242187500000000e+01,-6.307174682617187500e+01,-6.364315795898437500e+01,-6.400241851806640625e+01,-6.483728790283203125e+01,-6.635974121093750000e+01,-6.782144927978515625e+01,-6.836151885986328125e+01,-6.839555358886718750e+01,-6.859973144531250000e+01,-6.919596862792968750e+01,-6.966260528564453125e+01,-6.977091979980468750e+01,-6.982627105712890625e+01,-6.898516845703125000e+01,-6.630706787109375000e+01,-6.394189453125000000e+01,-6.306377410888671875e+01,-6.353263854980468750e+01,-6.439742279052734375e+01,-6.454931640625000000e+01,-6.434130859375000000e+01,-6.434881591796875000e+01,-6.453540039062500000e+01,-6.482306671142578125e+01,-6.491264343261718750e+01,-6.430567932128906250e+01,-6.268357086181640625e+01,-6.022351837158203125e+01,-5.852256393432617188e+01,-5.845162582397460938e+01,-6.019588470458984375e+01,-6.345472717285156250e+01,-6.650409698486328125e+01,-6.779629516601562500e+01,-6.780173492431640625e+01,-6.736019897460937500e+01,-6.679279327392578125e+01
-5.023248291015625000e+01,-5.707507705688476562e+01,-6.389650726318359375e+01,-6.213346862792968750e+01,-6.096235656738281250e+01,-6.124844360351562500e+01,-6.240016937255859375e+01,-6.336732482910156250e+01,-6.386397552490234375e+01,-6.411002349853515625e+01,-6.383297729492187500e+01,-6.362065124511718750e+01,-6.404962921142578125e+01,-6.466957855224609375e+01,-6.459789276123046875e+01,-6.407089996337890625e+01,-6.392853546142578125e+01,-6.416847991943359375e+01,-6.385548400878906250e+01,-6.275051879882812500e+01,-6.167168426513671875e+01,-6.065239715576171875e+01,-5.995077514648437500e+01,-6.009613037109375000e+01,-6.081632995605468750e+01,-6.050020599365234375e+01,-5.951711273193359375e+01,-5.971378326416015625e+01,-6.158556365966796875e+01,-6.406528472900390625e+01,-6.411010742187500000e+01,-6.262386322021484375e+01,-6.191320800781250000e+01,-6.239322662353515625e+01,-6.352088165283203125e+01,-6.417803192138671875e+01,-6.348503112792968750e+01,-6.203831481933593750e+01,-6.099584960937500000e+01,-6.090696716308593750e+01,-6.158413696289062500e+01,-6.274925231933593750e+01,-6.452922821044921875e+01,-6.661589050292968750e+01,-6.765593719482421875e+01,-6.741687774658203125e+01,-6.664935302734375000e+01,-6.589026641845703125e+01,-6.581576538085937500e+01,-6.618872070312500000e+01,-6.602519226074218750e+01,-6.535256195068359375e+01,-6.481049346923828125e+01,-6.455252838134765625e+01,-6.458026885986328125e+01,-6.462867736816406250e+01,-6.425433349609375000e+01,-6.378988647460937500e+01,-6.373606109619140625e+01,-6.408376312255859375e+01,-6.433568572998046875e+01,-6.409832000732421875e+01,-6.378205871582031250e+01,-6.405263519287109375e+01,-6.483360290527343750e+01,-6.501396179199218750e+01,-6.455033111572265625e+01,-6.406223297119140625e+01,-6.343479156494140625e+01,-6.263735961914062500e+01,-6.177901458740234375e+01,-6.098043060302734375e+01,-6.051041412353515625e+01,-6.064473724365234375e+01,-6.132321929931640625e+01,-6.193716430664062500e+01,-6.186785888671875000e+01,-6.155180358886718750e+01,-6.176428222656250000e+01,-6.272785186767578125e+01,-6.410607910156250000e+01,-6.544498443603515625e+01,-6.645143127441406250e+01,-6.685224151611328125e+01,-6.682737731933593750e+01,-6.690992736816406250e+01,-6.714662933349609375e+01,-6.703780364990234375e+01,-6.682124328613281250e+01,-6.689574432373046875e+01,-6.654015350341796875e+01,-6.488976287841796875e+01,-6.293843078613281250e+01,-6.194665527343750000e+01,-6.225325775146484375e+01,-6.361146545410156250e+01,-6.486911010742187500e+01,-6.490516662597656250e+01,-6.429451751708984375e+01,-6.369557189941406250e+01,-6.324176788330078125e+01,-6.281745910644531250e+01,-6.242588043212890625e+01,-6.170533752441406250e+01,-5.986914062500000000e+01,-5.807484817504882812e+01,-5.758110809326171875e+01,-5.869003295898437500e+01,-6.121587371826171875e+01,-6.434112548828125000e+01,-6.658897399902343750e+01,-6.621650695800781250e+01,-6.472554016113281250e+01,-6.396869659423828125e+01
-5.524379730224609375e+01,-5.983490753173828125e+01,-6.227014160156250000e+01,-6.224346160888671875e+01,-6.272933959960937500e+01,-6.337619781494140625e+01,-6.381936645507812500e+01,-6.453277587890625000e+01,-6.506818389892578125e+01,-6.455084228515625000e+01,-6.386719512939453125e+01,-6.361566162109375000e+01,-6.320808410644531250e+01,-6.255884552001953125e+01,-6.236705780029296875e+01,-6.269763183593750000e+01,-6.272213745117187500e+01,-6.223664093017578125e+01,-6.171498107910156250e+01,-6.135958099365234375e+01,-6.122544097900390625e+01,-6.113713073730468750e+01,-6.106837463378906250e+01,-6.102989959716796875e+01,-6.049556732177734375e+01,-5.929611587524414062e+01,-5.860606765747070312e+01,-5.925431823730468750e+01,-6.120726013183593750e+01,-6.342189025878906250e+01,-6.446638488769531250e+01,-6.461791992187500000e+01,-6.470829010009765625e+01,-6.510116577148437500e+01,-6.543893432617187500e+01,-6.516532897949218750e+01,-6.457610321044921875e+01,-6.396736907958984375e+01,-6.314590454101562500e+01,-6.275681304931640625e+01,-6.349118041992187500e+01,-6.534626007080078125e+01,-6.743823242187500000e+01,-6.869075012207031250e+01,-6.956897735595703125e+01,-7.033489990234375000e+01,-6.980060577392578125e+01,-6.767972564697265625e+01,-6.609476470947265625e+01,-6.566036987304687500e+01,-6.581937408447265625e+01,-6.612132263183593750e+01,-6.678021240234375000e+01,-6.794368743896484375e+01,-6.880459594726562500e+01,-6.823901367187500000e+01,-6.667424011230468750e+01,-6.539213562011718750e+01,-6.470661163330078125e+01,-6.428388977050781250e+01,-6.409298706054687500e+01,-6.445236968994140625e+01,-6.538314056396484375e+01,-6.629495239257812500e+01,-6.672640228271484375e+01,-6.695089721679687500e+01,-6.708887481689453125e+01,-6.554701995849609375e+01,-6.266566467285156250e+01,-6.067012786865234375e+01,-6.010501098632812500e+01,-6.043794250488281250e+01,-6.039771270751953125e+01,-5.990554809570312500e+01,-6.006723022460937500e+01,-6.093390655517578125e+01,-6.120720672607421875e+01,-6.061541748046875000e+01,-6.030861663818359375e+01,-6.079779815673828125e+01,-6.217954254150390625e+01,-6.444312286376953125e+01,-6.692938232421875000e+01,-6.802752685546875000e+01,-6.802342224121093750e+01,-6.797276306152343750e+01,-6.801521301269531250e+01,-6.768672943115234375e+01,-6.718599700927734375e+01,-6.692535400390625000e+01,-6.668745422363281250e+01,-6.619642639160156250e+01,-6.564340209960937500e+01,-6.537467193603515625e+01,-6.564994812011718750e+01,-6.634686279296875000e+01,-6.661189270019531250e+01,-6.591243743896484375e+01,-6.469814300537109375e+01,-6.363073730468750000e+01,-6.331874847412109375e+01,-6.369762420654296875e+01,-6.394003295898437500e+01,-6.297036743164062500e+01,-6.050746154785156250e+01,-5.812466812133789062e+01,-5.708117675781250000e+01,-5.772000122070312500e+01,-6.000936126708984375e+01,-6.354804229736328125e+01,-6.722530364990234375e+01,-6.899556732177734375e+01,-6.800751495361328125e+01,-6.679605102539062500e+01
-5.533008956909179688e+01,-5.951498413085937500e+01,-6.211137390136718750e+01,-6.284036254882812500e+01,-6.323176574707031250e+01,-6.336587524414062500e+01,-6.369481658935546875e+01,-6.433705902099609375e+01,-6.454306030273437500e+01,-6.373561096191406250e+01,-6.302536010742187500e+01,-6.321985626220703125e+01,-6.401373291015625000e+01,-6.454756164550781250e+01,-6.473494720458984375e+01,-6.487371826171875000e+01,-6.425760650634765625e+01,-6.300003051757812500e+01,-6.199364471435546875e+01,-6.138458251953125000e+01,-6.120812988281250000e+01,-6.130526733398437500e+01,-6.114521026611328125e+01,-6.063150024414062500e+01,-6.013855743408203125e+01,-5.984123229980468750e+01,-5.998243713378906250e+01,-6.090611267089843750e+01,-6.217369079589843750e+01,-6.279891967773437500e+01,-6.317913818359375000e+01,-6.381885528564453125e+01,-6.411004638671875000e+01,-6.404936218261718750e+01,-6.435211181640625000e+01,-6.516420745849609375e+01,-6.608088684082031250e+01,-6.584056091308593750e+01,-6.423960876464843750e+01,-6.312113952636718750e+01,-6.334359741210937500e+01,-6.484081268310546875e+01,-6.698989105224609375e+01,-6.874196624755859375e+01,-6.946293640136718750e+01,-6.926824951171875000e+01,-6.851301574707031250e+01,-6.754985809326171875e+01,-6.688919067382812500e+01,-6.688640594482421875e+01,-6.740172576904296875e+01,-6.800767517089843750e+01,-6.838529205322265625e+01,-6.859577178955078125e+01,-6.885007476806640625e+01,-6.848496246337890625e+01,-6.689886474609375000e+01,-6.525926971435546875e+01,-6.413452911376953125e+01,-6.361682891845703125e+01,-6.377532196044921875e+01,-6.450502777099609375e+01,-6.546292114257812500e+01,-6.656185150146484375e+01,-6.816100311279296875e+01,-6.954309082031250000e+01,-6.955443572998046875e+01,-6.830737304687500000e+01,-6.606913757324218750e+01,-6.408547210693359375e+01,-6.317906188964843750e+01,-6.279055786132812500e+01,-6.195923614501953125e+01,-6.119398498535156250e+01,-6.137876129150390625e+01,-6.231993103027343750e+01,-6.282717132568359375e+01,-6.253745269775390625e+01,-6.215898895263671875e+01,-6.209271240234375000e+01,-6.261676025390625000e+01,-6.374046325683593750e+01,-6.513220977783203125e+01,-6.661170959472656250e+01,-6.839019775390625000e+01,-6.956970214843750000e+01,-6.927558135986328125e+01,-6.888342285156250000e+01,-6.877333831787109375e+01,-6.881374359130859375e+01,-6.934626770019531250e+01,-7.029843902587890625e+01,-7.002417755126953125e+01,-6.863372039794921875e+01,-6.779696655273437500e+01,-6.744900512695312500e+01,-6.709352111816406250e+01,-6.693778991699218750e+01,-6.726104736328125000e+01,-6.780651092529296875e+01,-6.828590393066406250e+01,-6.802005767822265625e+01,-6.683715820312500000e+01,-6.511090850830078125e+01,-6.194937133789062500e+01,-5.916194915771484375e+01,-5.796986389160156250e+01,-5.847225570678710938e+01,-6.041175079345703125e+01,-6.319270324707031250e+01,-6.618778228759765625e+01,-6.812509155273437500e+01,-6.809001922607421875e+01,-6.779954528808593750e+01
-4.873723602294921875e+01,-5.519915008544921875e+01,-6.248010253906250000e+01,-6.349036407470703125e+01,-6.350982666015625000e+01,-6.350397491455078125e+01,-6.379337310791015625e+01,-6.399904632568359375e+01,-6.420678710937500000e+01,-6.428550720214843750e+01,-6.402828979492187500e+01,-6.392290496826171875e+01,-6.430352020263671875e+01,-6.477040100097656250e+01,-6.487880706787109375e+01,-6.453215026855468750e+01,-6.357457733154296875e+01,-6.264612579345703125e+01,-6.229439544677734375e+01,-6.213072204589843750e+01,-6.156420135498046875e+01,-6.054031372070312500e+01,-5.932724761962890625e+01,-5.858154296875000000e+01,-5.865335083007812500e+01,-5.903451538085937500e+01,-5.929168319702148438e+01,-6.008725738525390625e+01,-6.215396881103515625e+01,-6.481552886962890625e+01,-6.580316925048828125e+01,-6.524146270751953125e+01,-6.434556579589843750e+01,-6.387379455566406250e+01,-6.417892456054687500e+01,-6.501091766357421875e+01,-6.558196258544921875e+01,-6.479748535156250000e+01,-6.320069885253906250e+01,-6.234642028808593750e+01,-6.284028625488281250e+01,-6.458612060546875000e+01,-6.662560272216796875e+01,-6.764852905273437500e+01,-6.790726470947265625e+01,-6.807884979248046875e+01,-6.794863891601562500e+01,-6.746225738525390625e+01,-6.737207031250000000e+01,-6.780822753906250000e+01,-6.812175750732421875e+01,-6.827342987060546875e+01,-6.890037536621093750e+01,-7.004232025146484375e+01,-7.105094909667968750e+01,-7.074622344970703125e+01,-6.926761627197265625e+01,-6.783099365234375000e+01,-6.628411865234375000e+01,-6.494419097900390625e+01,-6.451481628417968750e+01,-6.510614776611328125e+01,-6.622681427001953125e+01,-6.753704071044921875e+01,-6.945661926269531250e+01,-7.108298492431640625e+01,-7.005457305908203125e+01,-6.718623352050781250e+01,-6.445018768310546875e+01,-6.281589508056640625e+01,-6.231263732910156250e+01,-6.202877044677734375e+01,-6.112937164306640625e+01,-6.029234313964843750e+01,-6.009570312500000000e+01,-6.043578338623046875e+01,-6.109922790527343750e+01,-6.199360656738281250e+01,-6.297296905517578125e+01,-6.401733398437500000e+01,-6.538643646240234375e+01,-6.673692321777343750e+01,-6.749761962890625000e+01,-6.801696014404296875e+01,-6.874070739746093750e+01,-6.941558074951171875e+01,-6.882510375976562500e+01,-6.732436370849609375e+01,-6.666777801513671875e+01,-6.723374938964843750e+01,-6.813972473144531250e+01,-6.793895721435546875e+01,-6.710506439208984375e+01,-6.683165740966796875e+01,-6.707939147949218750e+01,-6.696153259277343750e+01,-6.626873779296875000e+01,-6.571411132812500000e+01,-6.539804840087890625e+01,-6.513612365722656250e+01,-6.514569854736328125e+01,-6.537515258789062500e+01,-6.525141906738281250e+01,-6.409824371337890625e+01,-6.182577514648437500e+01,-5.993414306640625000e+01,-5.941155624389648438e+01,-6.044468688964843750e+01,-6.281982421875000000e+01,-6.584235382080078125e+01,-6.860417938232421875e+01,-6.990976715087890625e+01,-6.930541229248046875e+01,-6.807802581787109375e+01
-5.046136474609375000e+01,-5.566622924804687500e+01,-6.054485321044921875e+01,-6.313397216796875000e+01,-6.389401245117187500e+01,-6.334724426269531250e+01,-6.350748443603515625e+01,-6.445651245117187500e+01,-6.502943420410156250e+01,-6.443138122558593750e+01,-6.391780853271484375e+01,-6.443021392822265625e+01,-6.571309661865234375e+01,-6.630294036865234375e+01,-6.549660491943359375e+01,-6.452237701416015625e+01,-6.372245788574218750e+01,-6.304785156250000000e+01,-6.277967834472656250e+01,-6.274320220947265625e+01,-6.230375671386718750e+01,-6.121305847167968750e+01,-5.992488861083984375e+01,-5.917234802246093750e+01,-5.918064117431640625e+01,-5.960640716552734375e+01,-6.011039733886718750e+01,-6.104218292236328125e+01,-6.279167175292968750e+01,-6.476457214355468750e+01,-6.599374389648437500e+01,-6.639229583740234375e+01,-6.621212005615234375e+01,-6.600641632080078125e+01,-6.605549621582031250e+01,-6.579125213623046875e+01,-6.487248992919921875e+01,-6.348411560058593750e+01,-6.197871398925781250e+01,-6.107212066650390625e+01,-6.127141571044921875e+01,-6.275083923339843750e+01,-6.530181884765625000e+01,-6.809665679931640625e+01,-6.967249298095703125e+01,-6.968853759765625000e+01,-6.932788085937500000e+01,-6.847440338134765625e+01,-6.742416381835937500e+01,-6.679194641113281250e+01,-6.683077239990234375e+01,-6.746313476562500000e+01,-6.822146606445312500e+01,-6.845556640625000000e+01,-6.824533081054687500e+01,-6.823459625244140625e+01,-6.804326629638671875e+01,-6.688421630859375000e+01,-6.506719207763671875e+01,-6.380580139160156250e+01,-6.362790679931640625e+01,-6.421479797363281250e+01,-6.475967407226562500e+01,-6.517829132080078125e+01,-6.625819396972656250e+01,-6.782099914550781250e+01,-6.838666534423828125e+01,-6.721215820312500000e+01,-6.532106781005859375e+01,-6.386650848388671875e+01,-6.337190246582031250e+01,-6.342002105712890625e+01,-6.286737823486328125e+01,-6.190163421630859375e+01,-6.104841613769531250e+01,-6.036266326904296875e+01,-6.008281707763671875e+01,-6.060092926025390625e+01,-6.194800567626953125e+01,-6.358506774902343750e+01,-6.515380096435546875e+01,-6.656582641601562500e+01,-6.769054412841796875e+01,-6.853018951416015625e+01,-6.960678100585937500e+01,-7.095435333251953125e+01,-7.064883422851562500e+01,-6.851870727539062500e+01,-6.710008239746093750e+01,-6.682737731933593750e+01,-6.697184753417968750e+01,-6.688394927978515625e+01,-6.683753967285156250e+01,-6.712406158447265625e+01,-6.740197753906250000e+01,-6.735914611816406250e+01,-6.700486755371093750e+01,-6.664190673828125000e+01,-6.625559997558593750e+01,-6.542200469970703125e+01,-6.448683166503906250e+01,-6.420166778564453125e+01,-6.460621643066406250e+01,-6.484165954589843750e+01,-6.391026306152343750e+01,-6.256531524658203125e+01,-6.196810913085937500e+01,-6.239701843261718750e+01,-6.367679595947265625e+01,-6.548742675781250000e+01,-6.752964019775390625e+01,-6.886805725097656250e+01,-6.876689147949218750e+01,-6.798845672607421875e+01
-5.071401977539062500e+01,-5.460307312011718750e+01,-5.831378936767578125e+01,-6.172765350341796875e+01,-6.303913116455078125e+01,-6.239532470703125000e+01,-6.297759246826171875e+01,-6.540714263916015625e+01,-6.832131195068359375e+01,-6.787723541259765625e+01,-6.626809692382812500e+01,-6.553898620605468750e+01,-6.528341674804687500e+01,-6.488862609863281250e+01,-6.452634429931640625e+01,-6.420103454589843750e+01,-6.337728118896484375e+01,-6.241299438476562500e+01,-6.210900878906250000e+01,-6.224292755126953125e+01,-6.169364929199218750e+01,-6.052293395996093750e+01,-5.965527343750000000e+01,-5.932467651367187500e+01,-5.933371734619140625e+01,-5.943960571289062500e+01,-5.978718566894531250e+01,-6.073079681396484375e+01,-6.241464996337890625e+01,-6.423955535888671875e+01,-6.491652679443359375e+01,-6.462379455566406250e+01,-6.454624176025390625e+01,-6.531915283203125000e+01,-6.608827209472656250e+01,-6.519985961914062500e+01,-6.340969085693359375e+01,-6.205854034423828125e+01,-6.126047515869140625e+01,-6.084240722656250000e+01,-6.085992431640625000e+01,-6.167870330810546875e+01,-6.359588623046875000e+01,-6.638473510742187500e+01,-6.882087707519531250e+01,-6.923450469970703125e+01,-6.771736145019531250e+01,-6.590797424316406250e+01,-6.519835662841796875e+01,-6.562474060058593750e+01,-6.622325134277343750e+01,-6.635433959960937500e+01,-6.666968536376953125e+01,-6.720343017578125000e+01,-6.745974731445312500e+01,-6.757572937011718750e+01,-6.727069091796875000e+01,-6.574169158935546875e+01,-6.386153411865234375e+01,-6.295030212402343750e+01,-6.335220336914062500e+01,-6.467433166503906250e+01,-6.562756347656250000e+01,-6.566629028320312500e+01,-6.592090606689453125e+01,-6.665287017822265625e+01,-6.725672912597656250e+01,-6.647235870361328125e+01,-6.414837646484375000e+01,-6.237743377685546875e+01,-6.179238891601562500e+01,-6.137654876708984375e+01,-6.038373565673828125e+01,-5.949176025390625000e+01,-5.907411193847656250e+01,-5.891696166992187500e+01,-5.908099746704101562e+01,-5.985482025146484375e+01,-6.116939544677734375e+01,-6.270327758789062500e+01,-6.408267974853515625e+01,-6.514862823486328125e+01,-6.617242431640625000e+01,-6.708407592773437500e+01,-6.772164916992187500e+01,-6.816718292236328125e+01,-6.818413543701171875e+01,-6.756401062011718750e+01,-6.699043273925781250e+01,-6.682451629638671875e+01,-6.675102233886718750e+01,-6.668762207031250000e+01,-6.693884277343750000e+01,-6.746086883544921875e+01,-6.748499298095703125e+01,-6.668486022949218750e+01,-6.604029083251953125e+01,-6.624378204345703125e+01,-6.700349426269531250e+01,-6.701828002929687500e+01,-6.586035919189453125e+01,-6.469237518310546875e+01,-6.365454864501953125e+01,-6.251374816894531250e+01,-6.145446014404296875e+01,-6.087232971191406250e+01,-6.096734619140625000e+01,-6.168937683105468750e+01,-6.289373016357421875e+01,-6.433131408691406250e+01,-6.587448120117187500e+01,-6.747894287109375000e+01,-6.875025939941406250e+01,-6.845176696777343750e+01
-4.924897003173828125e+01,-5.130856704711914062e+01,-5.465572357177734375e+01,-5.963803863525390625e+01,-6.216041564941406250e+01,-6.065032958984375000e+01,-6.050112152099609375e+01,-6.216583251953125000e+01,-6.480601501464843750e+01,-6.629836273193359375e+01,-6.618992614746093750e+01,-6.564841461181640625e+01,-6.518762207031250000e+01,-6.495833587646484375e+01,-6.492954254150390625e+01,-6.492067718505859375e+01,-6.437142944335937500e+01,-6.352451324462890625e+01,-6.302236938476562500e+01,-6.272491455078125000e+01,-6.195525360107421875e+01,-6.069116210937500000e+01,-5.958835601806640625e+01,-5.908747100830078125e+01,-5.923324966430664062e+01,-5.965425872802734375e+01,-6.022026062011718750e+01,-6.132372283935546875e+01,-6.302295684814453125e+01,-6.434833526611328125e+01,-6.467028045654296875e+01,-6.476524353027343750e+01,-6.489817047119140625e+01,-6.524456024169921875e+01,-6.581123352050781250e+01,-6.580093383789062500e+01,-6.446525573730468750e+01,-6.239971923828125000e+01,-6.059917449951171875e+01,-5.974286651611328125e+01,-6.007324981689453125e+01,-6.153013610839843750e+01,-6.357761383056640625e+01,-6.523929595947265625e+01,-6.628301239013671875e+01,-6.698529052734375000e+01,-6.672538757324218750e+01,-6.585791015625000000e+01,-6.554616546630859375e+01,-6.547080993652343750e+01,-6.501663970947265625e+01,-6.493009185791015625e+01,-6.601450347900390625e+01,-6.776361083984375000e+01,-6.842967224121093750e+01,-6.781809234619140625e+01,-6.693647766113281250e+01,-6.605892944335937500e+01,-6.500487518310546875e+01,-6.401448822021484375e+01,-6.360179901123046875e+01,-6.395786285400390625e+01,-6.485910797119140625e+01,-6.584269714355468750e+01,-6.660038757324218750e+01,-6.696331787109375000e+01,-6.683144378662109375e+01,-6.549311065673828125e+01,-6.338708496093750000e+01,-6.224005126953125000e+01,-6.242807006835937500e+01,-6.251461791992187500e+01,-6.116793060302734375e+01,-5.979461669921875000e+01,-5.918603515625000000e+01,-5.901065063476562500e+01,-5.888956451416015625e+01,-5.904254150390625000e+01,-5.997191619873046875e+01,-6.188492584228515625e+01,-6.412131500244140625e+01,-6.525070190429687500e+01,-6.575923919677734375e+01,-6.642328643798828125e+01,-6.686035156250000000e+01,-6.682929992675781250e+01,-6.665548706054687500e+01,-6.683802795410156250e+01,-6.735972595214843750e+01,-6.773226928710937500e+01,-6.783347320556640625e+01,-6.793158721923828125e+01,-6.809384918212890625e+01,-6.828279876708984375e+01,-6.833221435546875000e+01,-6.788946533203125000e+01,-6.723486328125000000e+01,-6.684959411621093750e+01,-6.657266235351562500e+01,-6.594480895996093750e+01,-6.419387054443359375e+01,-6.165359497070312500e+01,-5.960462951660156250e+01,-5.867272567749023438e+01,-5.872444152832031250e+01,-5.903585815429687500e+01,-5.890123748779296875e+01,-5.892424774169921875e+01,-6.009027862548828125e+01,-6.275183105468750000e+01,-6.612433624267578125e+01,-6.788214111328125000e+01,-6.826136779785156250e+01,-6.758589935302734375e+01
-5.088923645019531250e+01,-5.209674835205078125e+01,-5.463239288330078125e+01,-5.867723083496093750e+01,-6.173169708251953125e+01,-6.135591125488281250e+01,-6.111251068115234375e+01,-6.210391998291015625e+01,-6.381635284423828125e+01,-6.544335937500000000e+01,-6.682922363281250000e+01,-6.743466949462890625e+01,-6.689366912841796875e+01,-6.626675415039062500e+01,-6.612079620361328125e+01,-6.610474395751953125e+01,-6.560221099853515625e+01,-6.467700958251953125e+01,-6.361840820312500000e+01,-6.253505706787109375e+01,-6.163848876953125000e+01,-6.119452667236328125e+01,-6.121601867675781250e+01,-6.133834838867187500e+01,-6.082283782958984375e+01,-5.938523483276367188e+01,-5.837714385986328125e+01,-5.879773712158203125e+01,-6.082677459716796875e+01,-6.366865539550781250e+01,-6.513043212890625000e+01,-6.529026794433593750e+01,-6.530514526367187500e+01,-6.572133636474609375e+01,-6.647029876708984375e+01,-6.638800811767578125e+01,-6.451849365234375000e+01,-6.205321502685546875e+01,-6.001930236816406250e+01,-5.872596740722656250e+01,-5.840152740478515625e+01,-5.931046295166015625e+01,-6.155757904052734375e+01,-6.446406555175781250e+01,-6.622954559326171875e+01,-6.712068939208984375e+01,-6.813500213623046875e+01,-6.793510437011718750e+01,-6.677390289306640625e+01,-6.595662689208984375e+01,-6.565365600585937500e+01,-6.580387115478515625e+01,-6.650577545166015625e+01,-6.768650054931640625e+01,-6.854859924316406250e+01,-6.831332397460937500e+01,-6.736437225341796875e+01,-6.615409851074218750e+01,-6.482070922851562500e+01,-6.392527770996093750e+01,-6.376120758056640625e+01,-6.414346313476562500e+01,-6.473873901367187500e+01,-6.554679870605468750e+01,-6.658390808105468750e+01,-6.715370178222656250e+01,-6.667391204833984375e+01,-6.507032012939453125e+01,-6.330421447753906250e+01,-6.245161437988281250e+01,-6.238906860351562500e+01,-6.165071868896484375e+01,-5.991289520263671875e+01,-5.856858825683593750e+01,-5.814762496948242188e+01,-5.839486694335937500e+01,-5.889059448242187500e+01,-5.942511749267578125e+01,-6.024050903320312500e+01,-6.178677368164062500e+01,-6.423790740966796875e+01,-6.693175506591796875e+01,-6.829320526123046875e+01,-6.826227569580078125e+01,-6.784911346435546875e+01,-6.779842376708984375e+01,-6.821777343750000000e+01,-6.857275390625000000e+01,-6.840467071533203125e+01,-6.806573486328125000e+01,-6.792079162597656250e+01,-6.781075286865234375e+01,-6.740766906738281250e+01,-6.695483398437500000e+01,-6.688201904296875000e+01,-6.709280395507812500e+01,-6.711115264892578125e+01,-6.686708831787109375e+01,-6.657925415039062500e+01,-6.603962707519531250e+01,-6.484566497802734375e+01,-6.299489593505859375e+01,-6.118410491943359375e+01,-6.007100677490234375e+01,-5.965618133544921875e+01,-5.957679748535156250e+01,-5.970914459228515625e+01,-6.033466339111328125e+01,-6.178520202636718750e+01,-6.404750823974609375e+01,-6.646580505371093750e+01,-6.775031280517578125e+01,-6.777916717529296875e+01,-6.726968383789062500e+01
-5.071871185302734375e+01,-5.098920440673828125e+01,-5.241195678710937500e+01,-5.553013610839843750e+01,-5.933819198608398438e+01,-6.001582336425781250e+01,-5.931857299804687500e+01,-5.989364624023437500e+01,-6.179746246337890625e+01,-6.393995666503906250e+01,-6.511348724365234375e+01,-6.572824096679687500e+01,-6.617790985107421875e+01,-6.668613433837890625e+01,-6.714244079589843750e+01,-6.657513427734375000e+01,-6.417723083496093750e+01,-6.167989349365234375e+01,-6.031649780273437500e+01,-6.019120788574218750e+01,-6.094574737548828125e+01,-6.165161132812500000e+01,-6.125695800781250000e+01,-6.018764495849609375e+01,-5.919599151611328125e+01,-5.831605529785156250e+01,-5.802685546875000000e+01,-5.904665374755859375e+01,-6.173635864257812500e+01,-6.519147491455078125e+01,-6.644499206542968750e+01,-6.608497619628906250e+01,-6.556736755371093750e+01,-6.522366333007812500e+01,-6.446118164062500000e+01,-6.254847717285156250e+01,-6.062366485595703125e+01,-5.956726074218750000e+01,-5.921704864501953125e+01,-5.873844909667968750e+01,-5.807236862182617188e+01,-5.825785827636718750e+01,-5.998721313476562500e+01,-6.316588592529296875e+01,-6.601091003417968750e+01,-6.708842468261718750e+01,-6.707097625732421875e+01,-6.624083709716796875e+01,-6.614990234375000000e+01,-6.712974548339843750e+01,-6.742549896240234375e+01,-6.653013610839843750e+01,-6.617744445800781250e+01,-6.666026306152343750e+01,-6.686364746093750000e+01,-6.632314300537109375e+01,-6.591049957275390625e+01,-6.594913482666015625e+01,-6.601908874511718750e+01,-6.565355682373046875e+01,-6.484782409667968750e+01,-6.394879150390625000e+01,-6.357228088378906250e+01,-6.402069091796875000e+01,-6.501906585693359375e+01,-6.550425720214843750e+01,-6.481527709960937500e+01,-6.293504333496093750e+01,-6.051105499267578125e+01,-5.900516891479492188e+01,-5.888540649414062500e+01,-5.959164428710937500e+01,-5.975121307373046875e+01,-5.922686767578125000e+01,-5.904271316528320312e+01,-5.922527313232421875e+01,-5.943351745605468750e+01,-5.971277618408203125e+01,-6.043296051025390625e+01,-6.187775421142578125e+01,-6.398788452148437500e+01,-6.605873870849609375e+01,-6.709700012207031250e+01,-6.723530578613281250e+01,-6.675000000000000000e+01,-6.652156066894531250e+01,-6.729141998291015625e+01,-6.835035705566406250e+01,-6.800073242187500000e+01,-6.645290374755859375e+01,-6.503610229492187500e+01,-6.385773468017578125e+01,-6.290251922607421875e+01,-6.263523101806640625e+01,-6.333774566650390625e+01,-6.462671661376953125e+01,-6.525889587402343750e+01,-6.515154266357421875e+01,-6.527100372314453125e+01,-6.548123168945312500e+01,-6.505352783203125000e+01,-6.359413909912109375e+01,-6.197102355957031250e+01,-6.101558685302734375e+01,-6.067518615722656250e+01,-6.047119140625000000e+01,-6.026734161376953125e+01,-6.059779357910156250e+01,-6.190065765380859375e+01,-6.412446594238281250e+01,-6.652490234375000000e+01,-6.798331451416015625e+01,-6.846019744873046875e+01,-6.803630065917968750e+01
-5.136656951904296875e+01,-5.141732025146484375e+01,-5.187679290771484375e+01,-5.362466430664062500e+01,-5.668331909179687500e+01,-5.923123931884765625e+01,-5.982837677001953125e+01,-6.084769439697265625e+01,-6.265199279785156250e+01,-6.372215270996093750e+01,-6.411086273193359375e+01,-6.514196777343750000e+01,-6.681005859375000000e+01,-6.781200408935546875e+01,-6.754540252685546875e+01,-6.655809783935546875e+01,-6.398420715332031250e+01,-6.153461456298828125e+01,-6.048565673828125000e+01,-6.076690673828125000e+01,-6.120099639892578125e+01,-6.013608551025390625e+01,-5.857250595092773438e+01,-5.787834930419921875e+01,-5.815180969238281250e+01,-5.889277648925781250e+01,-5.992263031005859375e+01,-6.179747772216796875e+01,-6.479544067382812500e+01,-6.713276672363281250e+01,-6.712511444091796875e+01,-6.650260162353515625e+01,-6.600816345214843750e+01,-6.579330444335937500e+01,-6.517742919921875000e+01,-6.301432800292968750e+01,-6.064579772949218750e+01,-5.940159225463867188e+01,-5.928039550781250000e+01,-5.976647949218750000e+01,-6.044795227050781250e+01,-6.162262725830078125e+01,-6.377477264404296875e+01,-6.660599517822265625e+01,-6.859074401855468750e+01,-6.880039215087890625e+01,-6.752090454101562500e+01,-6.587304687500000000e+01,-6.529878997802734375e+01,-6.602146911621093750e+01,-6.715741729736328125e+01,-6.748161315917968750e+01,-6.752822875976562500e+01,-6.801512145996093750e+01,-6.853336334228515625e+01,-6.829644775390625000e+01,-6.725399017333984375e+01,-6.603290557861328125e+01,-6.476495361328125000e+01,-6.374082946777343750e+01,-6.341865539550781250e+01,-6.368891143798828125e+01,-6.408583068847656250e+01,-6.455898284912109375e+01,-6.516791534423828125e+01,-6.496488189697265625e+01,-6.386228179931640625e+01,-6.281401062011718750e+01,-6.205935668945312500e+01,-6.179608154296875000e+01,-6.173020172119140625e+01,-6.042340850830078125e+01,-5.857578277587890625e+01,-5.767994689941406250e+01,-5.783339691162109375e+01,-5.835497283935546875e+01,-5.863740539550781250e+01,-5.883291625976562500e+01,-5.935460662841796875e+01,-6.065862274169921875e+01,-6.298341369628906250e+01,-6.561837768554687500e+01,-6.690259552001953125e+01,-6.718811035156250000e+01,-6.755883026123046875e+01,-6.813593292236328125e+01,-6.885791015625000000e+01,-6.921389770507812500e+01,-6.874652099609375000e+01,-6.797901153564453125e+01,-6.741014099121093750e+01,-6.648711395263671875e+01,-6.515538024902343750e+01,-6.433273315429687500e+01,-6.443210601806640625e+01,-6.507492065429687500e+01,-6.541554260253906250e+01,-6.534473419189453125e+01,-6.489456939697265625e+01,-6.428150177001953125e+01,-6.371895599365234375e+01,-6.270504760742187500e+01,-6.123908233642578125e+01,-6.025285339355468750e+01,-6.021080017089843750e+01,-6.064033508300781250e+01,-6.035156250000000000e+01,-5.909774017333984375e+01,-5.841784667968750000e+01,-5.930313491821289062e+01,-6.213751220703125000e+01,-6.647180175781250000e+01,-6.857806396484375000e+01,-6.812441253662109375e+01
-5.295228576660156250e+01,-5.441382980346679688e+01,-5.513208007812500000e+01,-5.658099365234375000e+01,-5.871084594726562500e+01,-5.995311737060546875e+01,-6.066806793212890625e+01,-6.216642761230468750e+01,-6.426873016357421875e+01,-6.552191925048828125e+01,-6.584378051757812500e+01,-6.629554748535156250e+01,-6.699960327148437500e+01,-6.736865997314453125e+01,-6.721260070800781250e+01,-6.659046173095703125e+01,-6.438162994384765625e+01,-6.207195281982421875e+01,-6.110103607177734375e+01,-6.144271850585937500e+01,-6.199754333496093750e+01,-6.150973510742187500e+01,-6.062201690673828125e+01,-6.024364471435546875e+01,-6.029296875000000000e+01,-6.004781341552734375e+01,-5.974785614013671875e+01,-6.041927337646484375e+01,-6.252703857421875000e+01,-6.511874389648437500e+01,-6.601731872558593750e+01,-6.584172058105468750e+01,-6.572036743164062500e+01,-6.576074218750000000e+01,-6.529212188720703125e+01,-6.379927062988281250e+01,-6.235298156738281250e+01,-6.162600708007812500e+01,-6.137475585937500000e+01,-6.145748138427734375e+01,-6.196410369873046875e+01,-6.293096160888671875e+01,-6.425395965576171875e+01,-6.584468841552734375e+01,-6.728340911865234375e+01,-6.764479064941406250e+01,-6.634020233154296875e+01,-6.450979614257812500e+01,-6.382234954833984375e+01,-6.456948089599609375e+01,-6.597010040283203125e+01,-6.681052398681640625e+01,-6.748777008056640625e+01,-6.843869018554687500e+01,-6.876775360107421875e+01,-6.849124908447265625e+01,-6.775631713867187500e+01,-6.647733306884765625e+01,-6.531750488281250000e+01,-6.478564453125000000e+01,-6.480892181396484375e+01,-6.508312225341796875e+01,-6.546457672119140625e+01,-6.593268585205078125e+01,-6.648088073730468750e+01,-6.677330017089843750e+01,-6.602619171142578125e+01,-6.441414642333984375e+01,-6.274673461914062500e+01,-6.157444000244140625e+01,-6.110577392578125000e+01,-6.096166992187500000e+01,-6.052056884765625000e+01,-5.998381805419921875e+01,-5.976828765869140625e+01,-5.975591278076171875e+01,-5.968744659423828125e+01,-5.987437438964843750e+01,-6.083146667480468750e+01,-6.278410339355468750e+01,-6.535324096679687500e+01,-6.694625091552734375e+01,-6.727034759521484375e+01,-6.754241180419921875e+01,-6.790786743164062500e+01,-6.810862731933593750e+01,-6.823430633544921875e+01,-6.838739013671875000e+01,-6.839147186279296875e+01,-6.788465118408203125e+01,-6.717875671386718750e+01,-6.665293884277343750e+01,-6.636299133300781250e+01,-6.611553192138671875e+01,-6.581816101074218750e+01,-6.507080078125000000e+01,-6.361024475097656250e+01,-6.268698120117187500e+01,-6.302282714843750000e+01,-6.411638641357421875e+01,-6.419885253906250000e+01,-6.274253845214843750e+01,-6.093943786621093750e+01,-5.980530548095703125e+01,-5.969355010986328125e+01,-6.017609405517578125e+01,-6.049234771728515625e+01,-6.046768188476562500e+01,-6.078250122070312500e+01,-6.192344665527343750e+01,-6.411679840087890625e+01,-6.680509948730468750e+01,-6.816637420654296875e+01,-6.841075897216796875e+01
-5.597362136840820312e+01,-6.024336242675781250e+01,-6.321398925781250000e+01,-6.289688873291015625e+01,-6.218214416503906250e+01,-6.162348175048828125e+01,-6.192839050292968750e+01,-6.355923461914062500e+01,-6.586573028564453125e+01,-6.627863311767578125e+01,-6.548155975341796875e+01,-6.538869476318359375e+01,-6.612729644775390625e+01,-6.709808349609375000e+01,-6.777388763427734375e+01,-6.772624969482421875e+01,-6.624164581298828125e+01,-6.429956817626953125e+01,-6.277884674072265625e+01,-6.193560791015625000e+01,-6.165351867675781250e+01,-6.153463745117187500e+01,-6.142179870605468750e+01,-6.152082061767578125e+01,-6.142260742187500000e+01,-6.030807495117187500e+01,-5.930820465087890625e+01,-5.967992401123046875e+01,-6.166674804687500000e+01,-6.429856109619140625e+01,-6.504480743408203125e+01,-6.420064544677734375e+01,-6.366790008544921875e+01,-6.407688903808593750e+01,-6.487915802001953125e+01,-6.445875549316406250e+01,-6.320375061035156250e+01,-6.162929534912109375e+01,-5.988500976562500000e+01,-5.903536224365234375e+01,-5.969760131835937500e+01,-6.192699432373046875e+01,-6.485812377929687500e+01,-6.666690826416015625e+01,-6.690080261230468750e+01,-6.641077423095703125e+01,-6.537427520751953125e+01,-6.416290283203125000e+01,-6.401205444335937500e+01,-6.541275787353515625e+01,-6.759422302246093750e+01,-6.813583374023437500e+01,-6.754880523681640625e+01,-6.751104736328125000e+01,-6.787311553955078125e+01,-6.804909515380859375e+01,-6.737869262695312500e+01,-6.627571105957031250e+01,-6.546273040771484375e+01,-6.521427917480468750e+01,-6.542205047607421875e+01,-6.567955017089843750e+01,-6.560886383056640625e+01,-6.524648284912109375e+01,-6.519776916503906250e+01,-6.579335784912109375e+01,-6.669081878662109375e+01,-6.640330505371093750e+01,-6.429766845703125000e+01,-6.251412200927734375e+01,-6.193470001220703125e+01,-6.171833801269531250e+01,-6.067781829833984375e+01,-5.960747528076171875e+01,-5.944098663330078125e+01,-5.997332000732421875e+01,-6.059854125976562500e+01,-6.138571166992187500e+01,-6.284954833984375000e+01,-6.469869995117187500e+01,-6.561238098144531250e+01,-6.568236541748046875e+01,-6.624747467041015625e+01,-6.734716796875000000e+01,-6.819825744628906250e+01,-6.845801544189453125e+01,-6.824882507324218750e+01,-6.782013702392578125e+01,-6.755594635009765625e+01,-6.742268371582031250e+01,-6.733213043212890625e+01,-6.708124542236328125e+01,-6.662853240966796875e+01,-6.636853027343750000e+01,-6.634249877929687500e+01,-6.598509979248046875e+01,-6.529695892333984375e+01,-6.513674926757812500e+01,-6.551580810546875000e+01,-6.542797851562500000e+01,-6.455334472656250000e+01,-6.366255950927734375e+01,-6.298242950439453125e+01,-6.246278381347656250e+01,-6.210505676269531250e+01,-6.176257324218750000e+01,-6.142544555664062500e+01,-6.132698059082031250e+01,-6.184954071044921875e+01,-6.316352844238281250e+01,-6.509407806396484375e+01,-6.689075469970703125e+01,-6.785473632812500000e+01,-6.816831207275390625e+01
-5.410724639892578125e+01,-5.850753021240234375e+01,-6.181312561035156250e+01,-6.248194885253906250e+01,-6.258377075195312500e+01,-6.247436523437500000e+01,-6.275967407226562500e+01,-6.343446350097656250e+01,-6.368872833251953125e+01,-6.356162261962890625e+01,-6.392945861816406250e+01,-6.503402709960937500e+01,-6.632290649414062500e+01,-6.669426727294921875e+01,-6.636719512939453125e+01,-6.607850646972656250e+01,-6.546665191650390625e+01,-6.440261840820312500e+01,-6.328976440429687500e+01,-6.256758880615234375e+01,-6.224171447753906250e+01,-6.189774322509765625e+01,-6.133852386474609375e+01,-6.071163177490234375e+01,-6.018009948730468750e+01,-5.977290344238281250e+01,-5.988729095458984375e+01,-6.097628784179687500e+01,-6.311305999755859375e+01,-6.557130432128906250e+01,-6.644995117187500000e+01,-6.575337219238281250e+01,-6.507307434082031250e+01,-6.506923675537109375e+01,-6.536328887939453125e+01,-6.505227661132812500e+01,-6.432331848144531250e+01,-6.341551971435546875e+01,-6.227365875244140625e+01,-6.160369110107421875e+01,-6.194137573242187500e+01,-6.333514404296875000e+01,-6.531195068359375000e+01,-6.728928375244140625e+01,-6.861781311035156250e+01,-6.865795898437500000e+01,-6.786637878417968750e+01,-6.693865966796875000e+01,-6.662297058105468750e+01,-6.682945251464843750e+01,-6.679145812988281250e+01,-6.646232604980468750e+01,-6.656478881835937500e+01,-6.712821197509765625e+01,-6.784595489501953125e+01,-6.866669464111328125e+01,-6.909669494628906250e+01,-6.833427429199218750e+01,-6.710273742675781250e+01,-6.657414245605468750e+01,-6.681909942626953125e+01,-6.696243286132812500e+01,-6.658732604980468750e+01,-6.655657958984375000e+01,-6.738489532470703125e+01,-6.829433441162109375e+01,-6.777927398681640625e+01,-6.559099578857421875e+01,-6.322590637207031250e+01,-6.196444702148437500e+01,-6.195372009277343750e+01,-6.245704650878906250e+01,-6.229901123046875000e+01,-6.156863403320312500e+01,-6.111476898193359375e+01,-6.102875518798828125e+01,-6.109349822998046875e+01,-6.135727691650390625e+01,-6.221183013916015625e+01,-6.385552215576171875e+01,-6.570990753173828125e+01,-6.688661193847656250e+01,-6.755295562744140625e+01,-6.819404602050781250e+01,-6.862071990966796875e+01,-6.887551879882812500e+01,-6.904681396484375000e+01,-6.901647949218750000e+01,-6.873674011230468750e+01,-6.811888122558593750e+01,-6.738698577880859375e+01,-6.654557037353515625e+01,-6.583255767822265625e+01,-6.579815673828125000e+01,-6.648020935058593750e+01,-6.678158569335937500e+01,-6.605903625488281250e+01,-6.558795928955078125e+01,-6.575756072998046875e+01,-6.585324096679687500e+01,-6.530918884277343750e+01,-6.429000091552734375e+01,-6.340055847167968750e+01,-6.316331481933593750e+01,-6.340594482421875000e+01,-6.330082702636718750e+01,-6.274876403808593750e+01,-6.230557250976562500e+01,-6.230818176269531250e+01,-6.300974273681640625e+01,-6.463484191894531250e+01,-6.677577209472656250e+01,-6.780524444580078125e+01,-6.730231475830078125e+01
-5.396225738525390625e+01,-5.925579071044921875e+01,-6.292926788330078125e+01,-6.317052459716796875e+01,-6.294890594482421875e+01,-6.275959014892578125e+01,-6.283179473876953125e+01,-6.298553466796875000e+01,-6.280161285400390625e+01,-6.259462738037109375e+01,-6.309472656250000000e+01,-6.444107055664062500e+01,-6.598375701904296875e+01,-6.672196197509765625e+01,-6.702295684814453125e+01,-6.685414123535156250e+01,-6.555086517333984375e+01,-6.425276184082031250e+01,-6.382198333740234375e+01,-6.401435089111328125e+01,-6.388274383544921875e+01,-6.309545898437500000e+01,-6.265380096435546875e+01,-6.294763183593750000e+01,-6.308843994140625000e+01,-6.220120239257812500e+01,-6.147667694091796875e+01,-6.193228149414062500e+01,-6.358641815185546875e+01,-6.572088623046875000e+01,-6.633636474609375000e+01,-6.532024383544921875e+01,-6.467756652832031250e+01,-6.500629425048828125e+01,-6.579115295410156250e+01,-6.600069427490234375e+01,-6.529047393798828125e+01,-6.393717956542968750e+01,-6.269947052001953125e+01,-6.214968872070312500e+01,-6.237792968750000000e+01,-6.341531372070312500e+01,-6.525057220458984375e+01,-6.745117950439453125e+01,-6.886029815673828125e+01,-6.915242004394531250e+01,-6.832658386230468750e+01,-6.712770080566406250e+01,-6.696635437011718750e+01,-6.783071136474609375e+01,-6.822406005859375000e+01,-6.780181121826171875e+01,-6.796798706054687500e+01,-6.878137207031250000e+01,-6.927606201171875000e+01,-6.929119110107421875e+01,-6.909405517578125000e+01,-6.825893402099609375e+01,-6.706156921386718750e+01,-6.645587921142578125e+01,-6.680195617675781250e+01,-6.766585540771484375e+01,-6.818119049072265625e+01,-6.824981689453125000e+01,-6.863785552978515625e+01,-6.947059631347656250e+01,-6.935869598388671875e+01,-6.690339660644531250e+01,-6.429497528076171875e+01,-6.310720062255859375e+01,-6.334472656250000000e+01,-6.400185394287109375e+01,-6.354743194580078125e+01,-6.248731994628906250e+01,-6.166735839843750000e+01,-6.087916564941406250e+01,-6.024195861816406250e+01,-6.034204864501953125e+01,-6.145170593261718750e+01,-6.336443328857421875e+01,-6.560057067871093750e+01,-6.764772033691406250e+01,-6.859614562988281250e+01,-6.834996795654296875e+01,-6.818036651611328125e+01,-6.833377075195312500e+01,-6.852230072021484375e+01,-6.873891448974609375e+01,-6.920639038085937500e+01,-6.965839385986328125e+01,-6.945709228515625000e+01,-6.859963989257812500e+01,-6.789721679687500000e+01,-6.774311065673828125e+01,-6.792201232910156250e+01,-6.781428527832031250e+01,-6.727284240722656250e+01,-6.698014068603515625e+01,-6.697286224365234375e+01,-6.658100891113281250e+01,-6.600261688232421875e+01,-6.581928253173828125e+01,-6.570772552490234375e+01,-6.508506774902343750e+01,-6.410140228271484375e+01,-6.317517852783203125e+01,-6.273101806640625000e+01,-6.309146881103515625e+01,-6.419013977050781250e+01,-6.559225463867187500e+01,-6.703426361083984375e+01,-6.856771087646484375e+01,-6.969210052490234375e+01,-6.965241241455078125e+01
-5.383300018310546875e+01,-5.863795471191406250e+01,-6.149401092529296875e+01,-6.245500946044921875e+01,-6.312579345703125000e+01,-6.345478820800781250e+01,-6.373779296875000000e+01,-6.396253204345703125e+01,-6.392761230468750000e+01,-6.377965545654296875e+01,-6.400436401367187500e+01,-6.481317138671875000e+01,-6.597517395019531250e+01,-6.695054626464843750e+01,-6.770730590820312500e+01,-6.749363708496093750e+01,-6.454894256591796875e+01,-6.190527343750000000e+01,-6.105136108398437500e+01,-6.179970550537109375e+01,-6.307188415527343750e+01,-6.335971069335937500e+01,-6.329103088378906250e+01,-6.375083160400390625e+01,-6.383852386474609375e+01,-6.206102752685546875e+01,-6.041095733642578125e+01,-6.040982055664062500e+01,-6.225647735595703125e+01,-6.521264648437500000e+01,-6.665473175048828125e+01,-6.610880279541015625e+01,-6.536741638183593750e+01,-6.543058013916015625e+01,-6.638230895996093750e+01,-6.681743621826171875e+01,-6.554234313964843750e+01,-6.372340393066406250e+01,-6.237210845947265625e+01,-6.200196838378906250e+01,-6.280606079101562500e+01,-6.469317626953125000e+01,-6.694443511962890625e+01,-6.845404815673828125e+01,-6.924475860595703125e+01,-6.973750305175781250e+01,-6.888059234619140625e+01,-6.694240570068359375e+01,-6.600993347167968750e+01,-6.656568908691406250e+01,-6.802017211914062500e+01,-6.931945037841796875e+01,-7.026616668701171875e+01,-7.075466156005859375e+01,-7.029875946044921875e+01,-6.960513305664062500e+01,-6.883799743652343750e+01,-6.766207885742187500e+01,-6.666213226318359375e+01,-6.657804870605468750e+01,-6.731988525390625000e+01,-6.791213989257812500e+01,-6.788984680175781250e+01,-6.810512542724609375e+01,-6.892978668212890625e+01,-6.961731719970703125e+01,-6.892584991455078125e+01,-6.653048706054687500e+01,-6.415621948242187500e+01,-6.301672363281250000e+01,-6.318607330322265625e+01,-6.394082641601562500e+01,-6.398464965820312500e+01,-6.305510711669921875e+01,-6.209873199462890625e+01,-6.165042877197265625e+01,-6.152601623535156250e+01,-6.133750152587890625e+01,-6.144367980957031250e+01,-6.257199859619140625e+01,-6.491914367675781250e+01,-6.742410278320312500e+01,-6.838046264648437500e+01,-6.863669586181640625e+01,-6.904214477539062500e+01,-6.955608367919921875e+01,-7.022667694091796875e+01,-7.110894775390625000e+01,-7.161428833007812500e+01,-7.117351531982421875e+01,-7.042079925537109375e+01,-6.980069732666015625e+01,-6.937828063964843750e+01,-6.942712402343750000e+01,-6.962770080566406250e+01,-6.873483276367187500e+01,-6.726690673828125000e+01,-6.660533905029296875e+01,-6.654010009765625000e+01,-6.635611724853515625e+01,-6.616180419921875000e+01,-6.624712371826171875e+01,-6.615293121337890625e+01,-6.524058532714843750e+01,-6.397415161132812500e+01,-6.318685913085937500e+01,-6.310800933837890625e+01,-6.333407592773437500e+01,-6.370343780517578125e+01,-6.471552276611328125e+01,-6.666133117675781250e+01,-6.870539855957031250e+01,-6.942774200439453125e+01,-6.916007232666015625e+01
-5.617830657958984375e+01,-5.781611633300781250e+01,-5.883553314208984375e+01,-5.989706420898437500e+01,-6.103385162353515625e+01,-6.175045776367187500e+01,-6.210916137695312500e+01,-6.225382232666015625e+01,-6.196970367431640625e+01,-6.163626861572265625e+01,-6.203153228759765625e+01,-6.344816589355468750e+01,-6.540845489501953125e+01,-6.671685791015625000e+01,-6.723513031005859375e+01,-6.673063659667968750e+01,-6.398588562011718750e+01,-6.151663208007812500e+01,-6.063576507568359375e+01,-6.117728424072265625e+01,-6.221846008300781250e+01,-6.256256866455078125e+01,-6.239464569091796875e+01,-6.242411041259765625e+01,-6.245133209228515625e+01,-6.115473937988281250e+01,-5.972908020019531250e+01,-5.985034942626953125e+01,-6.212035369873046875e+01,-6.640844726562500000e+01,-6.825784301757812500e+01,-6.603096008300781250e+01,-6.459047698974609375e+01,-6.487808990478515625e+01,-6.663852691650390625e+01,-6.743848419189453125e+01,-6.525933837890625000e+01,-6.288144683837890625e+01,-6.161985778808593750e+01,-6.180545806884765625e+01,-6.355507659912109375e+01,-6.677153778076171875e+01,-6.994630432128906250e+01,-7.045098114013671875e+01,-6.986222839355468750e+01,-6.933403015136718750e+01,-6.775606536865234375e+01,-6.575583648681640625e+01,-6.511505889892578125e+01,-6.637856292724609375e+01,-6.933978271484375000e+01,-7.203782653808593750e+01,-7.271166229248046875e+01,-7.281663513183593750e+01,-7.235842895507812500e+01,-7.149005126953125000e+01,-7.034485626220703125e+01,-6.903752899169921875e+01,-6.799316406250000000e+01,-6.750101470947265625e+01,-6.750074005126953125e+01,-6.787281036376953125e+01,-6.840445709228515625e+01,-6.874125671386718750e+01,-6.889494323730468750e+01,-6.917428588867187500e+01,-6.923120880126953125e+01,-6.818952178955078125e+01,-6.639750671386718750e+01,-6.524222564697265625e+01,-6.505546569824218750e+01,-6.461200714111328125e+01,-6.326138305664062500e+01,-6.217749786376953125e+01,-6.195424652099609375e+01,-6.226171875000000000e+01,-6.187404632568359375e+01,-6.035466003417968750e+01,-5.949263763427734375e+01,-6.042939758300781250e+01,-6.361898803710937500e+01,-6.853614807128906250e+01,-7.065316009521484375e+01,-7.061820983886718750e+01,-7.078975677490234375e+01,-7.137042236328125000e+01,-7.190150451660156250e+01,-7.209393310546875000e+01,-7.215515136718750000e+01,-7.204807281494140625e+01,-7.140429687500000000e+01,-6.978805541992187500e+01,-6.827859497070312500e+01,-6.786328125000000000e+01,-6.847848510742187500e+01,-6.912767028808593750e+01,-6.893708801269531250e+01,-6.862650299072265625e+01,-6.866999816894531250e+01,-6.868156433105468750e+01,-6.806857299804687500e+01,-6.708624267578125000e+01,-6.639770507812500000e+01,-6.619704437255859375e+01,-6.644873809814453125e+01,-6.684120941162109375e+01,-6.630023956298828125e+01,-6.432488250732421875e+01,-6.291641235351562500e+01,-6.320993804931640625e+01,-6.544564056396484375e+01,-6.895987701416015625e+01,-7.045000457763671875e+01,-7.016189575195312500e+01
